ply 
format ascii 1.0 
element vertex 1161
property float x 
property float y 
property float z 
property uchar red 
property uchar green 
property uchar blue 
end_header 
-0.19852 -0.381952 1.37905 221 130 107 
0.140983 -0.339376 1.44889 221 84 29 
-0.18693 -0.376122 1.3837 221 130 108 
-0.132946 -0.254291 1.31675 223 132 105 
-0.0616808 -0.468458 1.51634 213 187 179 
-0.126549 -0.411591 1.49938 224 138 116 
0.107524 -0.296125 1.3676 222 85 39 
-0.155175 -0.246343 1.45645 210 78 31 
-0.15401 -0.218268 1.40509 218 81 35 
0.37706 -0.202443 1.49009 213 140 125 
0.152976 -0.25848 1.32175 215 82 36 
0.0221306 -0.443916 1.5691 211 91 57 
0.116878 -0.106123 1.15581 224 75 33 
-0.258011 -0.605895 1.53632 210 115 95 
-0.0282509 -0.445485 1.55898 205 127 109 
-0.0069306 -0.451372 1.49835 206 118 109 
0.0428792 -0.345169 1.45131 191 45 7 
-0.0591815 -0.488361 1.50872 215 132 121 
-0.0374317 -0.471409 1.5233 210 131 113 
0.0828705 -0.422906 1.56629 210 75 44 
0.0586374 -0.453619 1.47884 215 78 42 
-0.168191 -0.337973 1.39223 220 146 131 
-0.119566 -0.374312 1.49224 223 113 95 
-0.12625 -0.263021 1.45081 222 197 184 
-0.0722747 -0.377975 1.57132 222 85 38 
-0.161501 -0.350436 1.3522 223 134 114 
-0.152156 -0.227968 1.3966 205 133 122 
-0.184099 -0.351204 1.36054 199 142 133 
-0.132763 -0.379529 1.5517 169 61 24 
-0.159439 -0.261791 1.37629 221 141 127 
-0.096965 -0.363766 1.56122 181 70 46 
0.150922 -0.48688 1.379 224 182 178 
-0.170316 -0.329755 1.3157 216 142 130 
-0.151086 -0.369941 1.53553 223 187 180 
-0.165468 -0.314474 1.38062 216 167 156 
-0.16117 -0.280782 1.36108 222 153 148 
-0.159805 -0.297507 1.34678 216 143 135 
-0.164484 -0.321819 1.32127 210 143 135 
-0.156416 -0.297803 1.42389 213 169 160 
-0.148795 -0.276248 1.48062 207 139 123 
-0.0651396 -0.538823 1.46619 196 174 164 
-0.117951 -0.199387 1.34123 210 157 144 
-0.150089 -0.2699 1.39379 224 172 165 
-0.0979756 -0.479057 1.4934 223 198 188 
-0.140489 -0.233711 1.3693 212 133 117 
-0.0854642 -0.475268 1.49203 214 184 175 
-0.303643 -0.359643 1.45977 201 206 222 
-0.154711 -0.253835 1.42132 219 135 115 
0.142007 -0.450057 1.36584 214 181 173 
-0.461302 -0.428734 1.36907 211 143 135 
-0.00074439 -0.517669 1.47928 220 178 163 
-0.15765 -0.260228 1.43051 221 179 172 
-0.160853 -0.322717 1.38262 218 132 109 
0.165035 -0.456466 1.34805 215 199 184 
-0.177725 -0.337751 1.39925 221 135 111 
0.162847 -0.484086 1.35747 223 202 192 
0.0582523 -0.430305 1.42575 222 193 189 
0.153292 -0.496304 1.38077 223 180 173 
0.127093 -0.294048 1.36298 223 84 37 
0.167308 -0.436244 1.35691 220 172 163 
-0.135557 -0.28894 1.50764 223 125 100 
0.0649245 -0.370608 1.58053 191 79 43 
-0.0892017 -0.338575 1.55223 211 185 186 
-0.00126142 -0.183136 1.28548 210 133 113 
-0.0798149 -0.20472 1.29241 219 127 102 
-0.282972 -0.220344 0.452088 213 78 36 
0.0588096 -0.193699 1.26653 209 169 155 
0.162817 -0.4269 1.54719 220 172 165 
-0.0959567 -0.217151 1.30455 211 155 144 
0.0486883 -0.240086 1.24874 219 174 160 
-0.0869643 -0.18167 1.32126 213 156 145 
0.00300336 -0.510028 1.51277 222 168 153 
-0.141401 -0.216716 1.38768 219 183 181 
-0.30371 -0.204613 1.4567 217 69 16 
-0.0718066 -0.209467 1.29705 212 151 134 
-0.15997 -0.314177 1.29074 224 145 129 
-0.120495 -0.257257 1.29357 215 139 119 
0.672252 -0.523362 1.41464 223 103 64 
0.0112916 -0.18891 1.27173 212 144 123 
0.0371621 -0.208782 1.24965 208 158 141 
0.150657 -0.392453 1.45144 222 151 138 
-0.0961942 -0.204435 1.32117 216 145 123 
-0.166227 -0.282095 1.41453 210 157 143 
-0.151786 -0.256844 1.45591 220 220 218 
-0.131753 -0.207411 1.3774 198 171 169 
-0.139848 -0.230063 1.36617 210 123 100 
0.188126 -0.365486 1.4093 210 144 128 
-0.345337 -0.268601 1.06196 218 141 116 
0.00622442 -0.273768 1.20523 216 182 160 
-0.0747261 -0.266646 1.21793 211 133 110 
0.0371861 -0.42504 1.59359 200 177 159 
-0.661824 -0.290076 0.931586 219 151 128 
0.173955 -0.500571 1.47356 215 192 176 
-0.163285 -0.489727 1.2949 212 177 165 
0.250015 -0.415825 1.387 223 191 178 
-0.0806159 -0.194436 1.30634 223 166 152 
0.144072 -0.349 1.43157 224 88 29 
-0.172522 -0.329763 1.24304 220 89 32 
-0.0498974 -0.334518 1.21182 222 170 157 
0.108196 -0.0915039 1.13695 153 5 0 
0.146677 -0.382152 1.27365 213 123 101 
0.096304 -0.399241 1.50502 207 150 134 
-0.127575 -0.402505 1.48008 217 174 156 
-0.092792 -0.467249 1.48336 220 147 123 
0.146961 -0.295555 1.30281 219 154 135 
0.169801 -0.363399 1.32887 224 182 175 
0.314369 -0.540174 1.17348 218 169 153 
-0.0837084 -0.473194 1.4767 222 149 125 
0.00385087 -0.397138 1.59211 205 98 66 
-0.0788348 -0.174587 1.32528 174 64 32 
0.0332307 -0.32366 1.18368 216 109 76 
-0.0357342 -0.235833 1.26643 223 130 102 
-0.14559 -0.271536 1.42319 209 150 140 
0.167079 -0.273881 1.31193 220 147 132 
-0.135906 -0.320423 1.27212 216 173 165 
-0.112709 -0.230174 1.34403 206 139 124 
-0.0725238 -0.220244 1.31096 223 161 146 
-0.138263 -0.261582 1.42905 205 154 145 
0.197316 -0.35523 1.42611 224 134 121 
-0.126656 -0.232922 1.36576 221 129 108 
-0.126021 -0.28551 1.27705 224 156 144 
-0.149694 -0.362316 1.44089 221 175 160 
0.20462 -0.334891 1.40687 222 193 195 
0.175166 -0.288521 1.33592 213 161 144 
-0.186453 -0.383881 1.39321 223 173 164 
0.173814 -0.307888 1.32712 219 170 154 
0.166942 -0.301596 1.32901 223 176 160 
0.164238 -0.394829 1.38363 214 171 171 
-0.0664887 -0.371928 1.57547 221 94 58 
0.171321 -0.486661 1.31533 216 67 24 
-0.0641616 -0.196539 1.30741 209 128 113 
0.0851166 -0.0512221 1.13898 160 11 0 
-0.0824562 -0.196346 1.33388 216 164 154 
0.114091 -0.454559 1.45364 221 124 107 
-0.155612 -0.343319 1.39147 224 155 147 
0.180815 -0.397518 1.38315 215 181 180 
-0.137366 -0.280151 1.33092 224 172 165 
-0.164012 -0.34383 1.39496 212 136 126 
-0.165576 -0.349425 1.40424 215 178 167 
0.177461 -0.382334 1.31231 218 147 124 
0.0643604 -0.335796 1.37304 215 151 143 
0.135889 -0.435009 1.38659 205 142 135 
0.171508 -0.288695 1.32202 222 161 141 
0.0491919 -0.241791 1.23998 221 144 130 
-0.0311338 -0.270636 1.20208 209 127 109 
0.109812 -0.425698 1.56226 219 128 107 
-0.0628906 -0.183245 1.31202 220 146 129 
-0.136165 -0.282482 1.26812 217 134 117 
-0.109539 -0.232121 1.31246 200 153 150 
-0.048997 -0.273723 1.22446 218 155 147 
-0.00200723 -0.200067 1.26528 193 132 121 
-0.000176056 -0.197978 1.26772 222 156 140 
0.129618 -0.230166 1.2756 166 96 88 
-0.0908372 -0.389089 1.47159 215 184 171 
-0.00867621 -0.513388 1.47304 213 201 187 
-0.0575527 -0.171873 1.32518 190 90 49 
0.0394768 -0.161511 1.35115 221 205 201 
-0.0684233 -0.229726 1.28346 214 180 165 
-0.111182 -0.296791 1.24974 191 131 120 
0.000843721 -0.179311 1.27118 198 166 159 
-0.0454202 -0.26224 1.233 207 132 109 
-0.0554424 -0.265687 1.23545 224 140 112 
-0.154807 -0.287468 1.32876 200 163 155 
-0.0908506 -0.202865 1.31363 208 121 103 
-0.101298 -0.212914 1.31889 194 130 110 
-0.161455 -0.320096 1.26269 215 160 146 
-0.117341 -0.288402 1.22477 224 168 155 
-0.102937 -0.277695 1.25287 210 163 149 
0.0470298 -0.184554 1.27091 211 197 187 
0.127943 -0.414873 1.53794 199 127 108 
-0.185576 -0.239473 1.45804 223 78 20 
0.0928455 -0.453813 1.49623 210 166 155 
-0.304857 -0.394712 1.13302 205 197 179 
0.175186 0.0333022 0.969971 213 79 41 
0.0188491 -0.196496 1.25907 221 122 95 
-0.164432 -0.29795 1.32875 217 138 120 
-0.132174 -0.213362 1.37011 222 145 133 
-0.133288 -0.287483 1.49744 213 136 124 
-0.13961 -0.223585 1.40916 222 150 135 
0.113243 -0.0902145 1.08165 220 68 28 
-0.000719624 -0.389853 1.59451 217 83 42 
0.0989151 -0.417325 1.55782 213 144 134 
-0.137128 -0.284346 1.54776 210 98 67 
0.0484833 -0.197666 1.24939 211 122 107 
0.0518876 -0.190399 1.26355 220 124 101 
0.209926 -0.352214 1.42446 198 82 59 
0.185401 -0.402805 1.38009 194 121 116 
0.288469 -0.503148 1.29318 222 141 141 
0.186944 -0.406169 1.38122 210 139 134 
0.166366 -0.269604 1.31998 221 135 121 
0.140093 -0.40293 1.27432 203 144 138 
0.161894 -0.391215 1.43645 221 168 164 
0.169728 -0.382745 1.28641 211 128 113 
0.178339 -0.371648 1.38307 214 170 179 
-0.135278 -0.322923 1.38018 212 140 136 
0.185301 -0.32618 1.35941 223 141 133 
0.159063 -0.440844 1.32077 210 135 137 
-0.148556 -0.275864 1.40394 214 164 158 
-0.10466 -0.476911 1.46209 221 141 127 
0.128022 -0.328196 1.37244 209 141 131 
-0.130284 -0.387879 1.49878 222 157 143 
0.176155 -0.415086 1.32063 199 108 95 
-0.165059 -0.288977 1.41618 205 142 132 
0.141616 -0.369439 1.27103 221 131 115 
-0.0955394 -0.211396 1.32778 216 121 104 
0.175413 -0.412654 1.28395 214 117 96 
-0.154235 -0.310964 1.42654 212 153 150 
-0.131262 -0.311861 1.39403 205 146 140 
-0.18471 -0.366453 1.37041 209 151 147 
0.174954 -0.397867 1.34852 224 150 146 
0.152731 -0.390015 1.33911 223 128 110 
0.158566 -0.448889 1.32148 214 151 142 
0.177704 -0.373458 1.37515 219 160 159 
-0.00445315 -0.388743 1.59189 203 91 60 
0.135796 -0.0175537 1.02662 212 68 33 
-0.019233 -0.18167 1.26695 218 112 91 
0.0665745 -0.278259 1.39814 196 62 22 
0.065728 -0.278255 1.39386 212 69 30 
-0.0676447 -0.27544 1.21501 223 140 119 
0.0125059 -0.183525 1.26609 197 102 88 
-0.0976326 -0.200013 1.31779 222 128 107 
0.13976 -0.241695 1.2734 201 112 93 
0.13667 -0.224069 1.28423 199 113 95 
0.156116 -0.256451 1.28685 221 147 130 
0.083122 -0.196899 1.25717 209 76 46 
0.16413 -0.036287 1.0279 196 63 27 
0.193091 -0.44735 1.24661 192 38 0 
0.154277 -0.219643 1.17571 201 47 5 
0.120794 -0.441182 1.48979 214 122 107 
0.207998 -0.356854 1.41405 212 133 118 
0.140171 -0.48455 1.42028 221 127 107 
0.167505 -0.451076 1.44479 220 123 103 
-0.128068 -0.247698 1.41393 220 143 125 
-0.10993 -0.302786 1.23159 223 138 120 
0.161769 -0.263205 1.20603 196 85 65 
0.0965348 -0.136492 1.18483 193 41 4 
0.0961553 -0.140758 1.18957 185 36 0 
0.180887 -0.426462 1.36941 207 142 138 
0.228131 -0.517701 1.12212 224 93 60 
0.143595 0.0156452 0.918597 187 54 25 
0.113096 -0.0472667 1.10427 186 50 17 
-0.117379 -0.204068 1.37375 211 82 42 
0.0791021 -0.219902 1.24541 204 134 121 
0.111372 -0.0804003 1.11577 203 64 27 
0.202222 -0.338188 1.29496 206 126 110 
0.0231474 -0.194087 1.25836 223 124 108 
-0.165239 -0.375068 1.44933 200 138 122 
-0.113496 -0.434749 1.49802 213 129 108 
0.0811181 -0.446717 1.55168 198 149 147 
-0.181112 -0.460504 1.44049 203 187 182 
-0.176057 -0.436623 1.4261 213 184 174 
-0.01342 -0.174415 1.3002 202 85 42 
0.0657312 -0.519083 1.46734 214 171 159 
0.140462 -0.339726 1.23428 220 150 127 
0.250488 -0.210436 1.1312 222 185 176 
-0.0344169 -0.453415 1.52336 211 144 126 
0.00389242 -0.476978 1.52526 182 112 98 
-0.150744 -0.269611 1.46671 199 143 141 
-0.0419778 -0.4848 1.51363 222 160 145 
-0.286997 -0.490813 1.37994 215 85 43 
0.130018 -0.229597 1.27242 166 110 100 
-0.00329052 -0.178317 1.28303 221 145 137 
0.0710933 -0.191973 1.2654 201 191 196 
-0.0316197 -0.286229 1.19596 217 132 119 
0.185414 -0.286155 1.32102 219 155 143 
0.0182309 -0.1953 1.26574 210 127 111 
-0.030768 -0.510564 1.51552 177 127 119 
0.115056 -0.241438 1.26685 220 120 101 
0.169366 -0.272396 1.28651 218 124 110 
-0.0236843 -0.435341 1.54905 210 147 134 
-0.05425 -0.267415 1.3606 221 131 110 
0.021725 -0.499906 1.46588 220 164 158 
0.0447271 -0.303766 1.21086 219 119 94 
-0.041454 -0.487955 1.50403 214 147 137 
-0.0114866 -0.508937 1.49894 212 148 133 
0.00050278 -0.475032 1.51855 224 156 146 
0.00599457 -0.46072 1.52589 207 154 141 
-0.0447594 -0.48708 1.49504 223 165 153 
0.170704 -0.284968 1.30745 209 130 110 
0.167721 -0.416019 1.3567 224 126 107 
0.185077 -0.373899 1.37325 214 153 155 
-0.0870016 -0.353619 1.56243 130 28 0 
0.247525 -0.339414 1.4312 187 94 63 
-0.112572 -0.345985 1.36918 206 105 78 
0.101248 -0.316027 1.23613 221 155 134 
-0.039483 -0.50648 1.48749 180 166 160 
-0.0977599 -0.202228 1.31582 212 152 137 
-0.049985 -0.50805 1.48309 206 176 165 
-0.184489 -0.335658 1.36993 223 138 117 
0.20717 -0.388499 1.46608 215 148 127 
-0.0277243 -0.434929 1.54498 219 174 165 
0.16001 -0.273397 1.30473 209 149 134 
-0.150362 -0.370136 1.4653 218 128 105 
-0.183401 -0.34521 1.36688 217 130 103 
-0.144115 -0.194779 1.44668 219 83 34 
-0.174088 -0.23013 1.41099 220 86 34 
-0.150873 -0.232826 1.45057 219 84 37 
0.114416 -0.0616401 1.07848 205 68 29 
0.135552 -0.230915 1.27033 219 163 161 
0.0456617 -0.180753 1.267 151 46 20 
0.162117 -0.408723 1.28059 206 134 129 
0.18562 -0.299909 1.33119 212 124 111 
0.147878 -0.409429 1.26568 206 121 110 
0.222114 -0.396967 0.798692 213 117 98 
-0.0839236 -0.431599 1.54602 220 124 101 
0.178725 -0.345818 1.34825 220 131 120 
0.129306 -0.00888188 0.996774 203 65 27 
0.152118 -0.0606363 0.918823 196 58 25 
-0.0316599 -0.447153 1.54511 224 156 149 
-0.0921101 -0.492239 1.48886 223 156 147 
-0.123927 -0.221341 1.3668 217 124 112 
0.167394 -0.484558 1.36591 214 150 144 
-0.172499 -0.333802 1.4196 214 150 143 
-0.126591 -0.247796 1.36955 217 125 109 
-0.161146 -0.308214 1.65798 181 69 35 
0.381999 -0.413835 1.4421 215 59 19 
0.0988836 -0.143591 1.18688 217 66 25 
0.149387 -0.394796 1.26234 223 143 135 
0.0454812 -0.316701 1.18243 224 133 114 
0.0400477 -0.184003 1.25232 222 88 52 
0.0981134 -0.170191 1.21082 219 78 33 
0.142211 -0.291429 1.27668 203 128 111 
0.116286 -0.0301139 1.05163 174 53 22 
0.0469358 -0.229533 1.3145 213 140 126 
0.159824 -0.405849 1.27631 221 138 130 
0.128288 -0.243505 1.27581 215 116 100 
0.0834788 -0.328143 1.20639 223 125 100 
0.111984 -0.0501658 1.07928 199 60 28 
0.120247 -0.25679 1.26746 220 124 104 
0.124696 -0.030209 1.02149 190 71 40 
-0.0213862 -0.398694 1.58303 174 72 50 
0.027275 -0.397892 1.58506 194 82 55 
-0.0166446 -0.488668 1.53121 177 114 101 
-0.077725 -0.337935 1.5525 215 121 99 
0.125039 -0.0326356 1.02752 196 60 19 
0.135635 0.0701379 0.955866 192 63 36 
0.103953 -0.114148 1.12087 217 69 24 
-0.0259762 -0.163621 1.29179 210 73 40 
0.0991778 -0.274453 1.1887 193 68 33 
0.0712356 -0.191917 1.25364 222 75 39 
-0.0525515 -0.301749 1.20255 214 172 159 
0.120322 -0.224747 1.27483 138 92 83 
0.0971701 -0.472044 1.47894 221 178 161 
-0.0914923 -0.182467 1.32403 218 99 54 
-0.0261601 -0.278931 1.29848 214 132 110 
-0.0406192 -0.182764 1.30103 176 121 115 
-0.0947246 -0.181063 1.33631 159 49 0 
0.0901447 -0.357011 1.20518 223 93 37 
0.140255 -0.294177 1.28147 214 142 123 
-0.102621 -0.332334 1.52941 188 85 43 
0.159024 -0.397596 1.50262 190 81 41 
-0.0525062 -0.177718 1.30777 155 124 119 
0.182181 -0.270881 1.31563 191 153 141 
0.117253 -0.349686 1.22431 199 146 131 
0.0585621 -0.192422 1.27341 209 143 125 
0.10998 -0.236587 1.26585 215 146 128 
0.0856582 -0.195452 1.27221 197 86 47 
-0.126812 -0.223668 1.33901 213 169 163 
-0.0589889 -0.180808 1.30951 176 125 109 
0.148352 -0.263394 1.27256 202 147 138 
0.186446 -0.328205 1.30404 218 155 143 
-0.0277067 -0.199381 1.26812 199 122 105 
0.149969 -0.344553 1.25517 206 151 139 
-0.117079 -0.239535 1.30574 222 172 156 
0.0394217 -0.208031 1.26116 215 122 89 
0.0222955 -0.187817 1.27737 197 115 96 
-0.0365363 -0.212842 1.26593 194 125 111 
0.118484 -0.242511 1.34902 218 126 107 
0.140896 -0.250586 1.28427 196 147 130 
0.127053 -0.222332 1.27914 202 188 189 
-0.107291 -0.204417 1.33693 203 159 148 
0.167204 -0.301593 1.29166 215 143 124 
-0.0422044 -0.221213 1.24397 206 126 106 
0.133268 -0.27022 1.26913 196 126 107 
-0.0810436 -0.253286 1.26062 201 140 128 
-0.0739443 -0.236199 1.25244 207 137 112 
-0.114486 -0.274868 1.26644 199 180 164 
-0.117725 -0.228474 1.32832 216 152 132 
-0.0709006 -0.199461 1.2953 212 128 107 
0.0223783 -0.475459 1.48082 217 150 132 
-0.116544 -0.226168 1.33461 212 147 127 
0.0977387 -0.338607 1.2224 214 135 115 
0.0611875 -0.183612 1.2697 219 91 44 
-0.0952201 -0.238502 1.28769 213 153 131 
-0.0683111 -0.241515 1.2454 217 146 124 
0.0174964 -0.492052 1.50212 224 164 144 
-0.0162921 -0.195937 1.28036 216 128 105 
-0.125156 -0.384537 1.50359 217 176 165 
-0.0419426 -0.503239 1.48471 210 166 156 
0.0149995 -0.315838 1.16674 220 128 98 
-0.0916044 -0.211858 1.30975 203 171 157 
0.00462373 -0.293142 1.20164 220 132 103 
0.0716505 -0.524546 1.45282 220 154 129 
0.0216237 -0.376524 0.645026 192 196 199 
-0.0209168 -0.196832 1.27388 209 130 108 
-0.0167688 -0.502631 1.50875 221 146 127 
0.0492861 -0.440446 1.41491 223 144 130 
-0.116572 -0.388538 1.46654 217 213 215 
0.0888777 -0.413841 1.5293 220 174 160 
-0.0950919 -0.401409 1.49312 217 159 140 
-0.088014 -0.22102 1.29642 224 148 129 
0.145553 -0.295231 1.26643 219 141 120 
0.141671 -0.49313 1.38653 219 191 176 
-0.11909 -0.217962 1.33796 212 174 164 
-0.0608694 -0.283521 1.2382 219 143 120 
0.00348027 -0.47337 1.52473 208 148 133 
-0.043547 -0.482258 1.38464 217 147 130 
-0.0901388 -0.440418 1.49726 223 170 155 
-0.0434681 -0.445663 1.35767 202 162 151 
-0.144934 -0.226962 1.41239 206 180 176 
-0.141265 -0.296696 1.50207 219 192 194 
0.0683512 -0.25704 1.35503 213 66 21 
0.205388 -0.291608 1.36389 222 83 42 
-0.0486967 -0.215257 1.29868 220 129 102 
-0.0689247 -0.175059 1.30804 192 107 78 
-0.0524126 -0.384318 1.45914 212 170 159 
-0.0633367 -0.178077 1.30689 182 164 161 
-0.110337 -0.19279 1.32968 190 96 64 
-0.0280017 -0.495559 1.51183 216 187 177 
0.0617398 -0.236159 1.26637 222 144 125 
0.166105 -0.293374 1.29856 216 163 149 
0.179906 -0.263043 1.32333 191 145 132 
-0.0255144 -0.19573 1.37396 196 123 108 
-0.0667425 -0.180282 1.30314 187 156 149 
-0.0764883 -0.217687 1.26983 218 134 113 
-0.0551351 -0.48055 1.5097 202 170 151 
-0.10382 -0.261206 1.24939 210 147 130 
-0.0958351 -0.341395 1.49543 193 79 35 
0.178044 -0.280218 1.3249 218 191 180 
-0.0748209 -0.261743 1.26778 210 152 136 
-0.153444 -0.344325 1.40118 224 163 143 
0.207445 -0.30135 1.36547 220 184 175 
0.163258 -0.424671 1.51016 224 152 126 
0.171381 -0.275892 1.31516 208 153 146 
-0.16459 -0.382782 1.38675 213 177 166 
0.00951881 -0.199255 1.26272 220 124 92 
-0.0704958 -0.317313 0.760721 220 128 99 
-0.0606009 -0.497991 1.49392 202 184 174 
0.0203859 -0.23823 1.29652 224 125 96 
-0.00277859 -0.500878 1.49053 209 149 129 
-0.0838283 -0.194665 1.31529 223 144 126 
-0.195176 -0.374479 1.36136 176 120 110 
-0.177917 -0.327695 1.40418 189 112 93 
-0.623571 -0.110931 1.46442 218 78 32 
-0.425966 -0.168175 1.46177 201 68 20 
-0.0744 -0.189138 1.30824 191 140 126 
-0.145809 -0.241126 1.40681 217 136 110 
-0.180033 -0.329533 1.39301 199 118 102 
0.153997 -0.443479 1.30636 184 158 154 
-0.184456 -0.410916 1.40075 206 83 34 
-0.187242 -0.414198 1.40878 212 148 137 
0.0868005 -0.528104 1.43577 216 142 115 
0.189489 -0.386016 1.29162 194 146 130 
0.100445 -0.470289 1.48597 218 140 117 
-0.162258 -0.328031 1.26548 215 100 55 
-0.14461 -0.290681 1.45708 210 128 107 
0.157391 -0.415061 1.26558 191 171 161 
-0.163998 -0.245618 1.38218 202 151 135 
0.211449 -0.349714 1.37271 205 166 158 
0.178653 -0.395734 1.28781 205 179 167 
-0.157005 -0.25132 1.43013 199 127 112 
0.116915 -0.386563 1.2381 217 147 128 
-0.122214 -0.218803 1.35432 212 144 128 
-0.12042 -0.215565 1.32911 218 134 113 
-0.158552 -0.288826 1.44942 222 139 125 
-0.138218 -0.228035 1.41822 220 196 196 
-0.161095 -0.311308 1.306 211 144 130 
-0.170104 -0.385102 1.43151 211 138 121 
0.134554 -0.403279 1.2895 210 143 127 
0.189301 -0.49217 1.41321 216 166 157 
-0.186292 -0.367225 1.3858 213 136 117 
0.156657 -0.329593 1.27794 216 148 134 
-0.0922961 -0.251734 1.26549 211 140 118 
0.131291 -0.386926 1.28343 212 155 143 
0.154785 -0.449426 1.44094 216 193 189 
-0.19809 -0.332397 1.35388 212 126 111 
0.141329 -0.323643 1.26858 217 140 117 
0.0915054 -0.503129 1.4518 223 157 138 
-0.133164 -0.239285 1.33825 211 161 154 
0.109866 -0.495656 1.42729 217 160 146 
0.0924715 -0.494061 1.42033 212 192 184 
-0.0262964 -0.292415 1.3876 202 122 100 
-0.192106 -0.354729 1.32544 205 98 65 
0.186576 -0.403509 1.37612 201 179 176 
-0.140235 -0.240424 1.34915 219 186 177 
-0.108398 -0.262377 1.27265 212 138 117 
-0.0560694 -0.300157 1.20242 199 180 165 
-0.151879 -0.391181 1.4561 221 145 119 
-0.183377 -0.331087 1.39865 217 151 139 
-0.16027 -0.294969 1.35608 219 136 116 
0.133264 -0.442179 1.47729 214 186 169 
-0.174395 -0.313878 1.30965 221 146 127 
-0.0511688 -0.21045 1.27602 223 148 120 
-0.169454 -0.246039 1.45487 219 85 29 
0.194749 -0.297969 1.36179 220 83 28 
0.136784 -0.306933 1.3468 220 83 28 
-0.122262 -0.250621 1.31502 219 135 110 
-0.148337 -0.261907 1.3011 217 133 108 
0.173218 -0.430371 1.39931 214 197 191 
0.203627 -0.337737 1.34721 216 191 178 
-0.187033 -0.241493 1.41342 213 82 29 
-0.093979 -0.224146 1.30028 222 145 121 
-0.217283 -0.2486 1.39742 217 86 35 
0.175667 -0.28932 1.35392 223 87 31 
-0.124327 -0.245426 1.29853 219 137 110 
0.105309 -0.0815086 1.12303 143 13 0 
0.123415 -0.225453 1.28768 209 150 143 
0.404162 -0.423176 1.41897 200 58 13 
0.18952 -0.370975 1.34145 208 170 172 
-0.0749055 -0.483159 1.49231 197 166 148 
0.396734 -0.426323 1.39003 212 65 20 
-0.136677 -0.324912 1.5266 214 145 137 
0.0687691 -0.19687 1.28008 197 150 139 
0.399928 -0.429876 1.37743 208 70 31 
0.165077 -0.440439 1.30721 209 167 167 
0.165644 -0.441245 1.33958 218 125 117 
-0.0349227 -0.504068 1.49781 220 154 131 
0.168698 -0.425102 1.33892 220 145 138 
0.158459 -0.416155 1.25677 205 156 156 
0.143379 -0.365997 1.26476 214 139 131 
0.157563 -0.329059 1.29676 204 137 125 
0.113288 -0.345073 1.20298 223 134 111 
-0.114795 -0.467427 1.49455 216 176 165 
-0.126798 -0.380276 1.49635 216 173 167 
0.096934 -0.318674 1.22813 214 136 119 
-0.0695631 -0.446131 1.52511 195 147 133 
0.0159237 -0.249133 1.37855 217 144 127 
0.163336 -0.464054 1.34916 220 153 145 
0.0995755 -0.302928 1.23618 220 129 102 
0.0950813 -0.22751 1.28319 215 129 101 
-0.076006 -0.446457 1.52211 213 163 146 
-0.18197 -0.378684 1.44701 224 159 149 
0.132132 -0.268999 1.27994 212 157 138 
-0.128987 -0.41777 1.46163 224 165 154 
0.0772556 -0.187367 1.2701 223 84 41 
0.156343 -0.0930166 1.0638 175 40 9 
0.130108 -0.108103 1.12194 200 48 10 
0.142081 -0.399349 1.4492 190 144 141 
-0.143871 -0.268262 1.3824 209 165 155 
0.184911 -0.426864 1.39171 204 109 91 
-0.145998 -0.324376 1.34992 207 131 118 
-0.134128 -0.279851 1.40881 213 168 156 
0.167355 -0.391581 1.40706 211 162 162 
-0.169423 -0.343407 1.40243 223 171 161 
0.142755 -0.427773 1.37817 214 150 142 
0.188676 0.0038618 0.945274 161 30 0 
0.134613 -0.454471 1.51226 204 99 78 
0.0470649 -0.404491 1.57702 193 82 58 
0.151712 -0.0900087 1.0917 202 59 15 
0.137293 -0.137528 1.15699 209 57 16 
0.128302 -0.48938 1.43365 222 127 105 
-0.143984 -0.260688 1.41081 224 139 123 
-0.0020687 -0.414954 1.44552 213 113 94 
-0.174515 -0.356452 1.36888 197 140 130 
-0.180699 -0.350078 1.35393 187 121 108 
-0.136481 -0.307283 1.51002 165 131 119 
-0.131644 -0.3065 1.51366 172 129 104 
-0.178339 -0.2999 1.39064 187 122 104 
-0.151138 -0.261276 1.43413 210 134 114 
-0.154478 -0.270756 1.42118 209 135 110 
0.165508 -0.471565 1.38355 219 193 183 
0.159914 -0.479308 1.35421 181 161 159 
-0.105611 -0.195594 1.33361 204 131 114 
0.124525 -0.504809 1.43015 207 161 150 
0.0978916 -0.375872 1.21427 223 168 150 
-0.0425487 -0.197829 1.27517 210 133 110 
-0.170187 -0.307634 1.35813 208 130 113 
-0.120629 -0.29314 1.25116 224 161 147 
0.558015 -0.481103 1.43107 218 103 61 
0.148308 -0.496683 1.43112 205 165 159 
-0.126474 -0.226821 1.3368 180 149 143 
-0.023175 -0.311382 1.18414 206 166 152 
-0.141125 -0.249765 1.33486 209 136 119 
-0.117791 -0.469713 1.46981 196 178 163 
-0.123843 -0.303355 1.21557 203 136 121 
0.180595 -0.362646 1.33522 209 160 147 
-0.139158 -0.270289 1.24635 218 126 96 
-0.126918 -0.225867 1.36994 200 159 145 
-0.102552 -0.346597 1.54352 200 149 127 
-0.142876 -0.2396 1.42003 204 156 144 
-0.147159 -0.243377 1.38254 205 169 159 
-0.135357 -0.270404 1.28823 207 136 123 
-0.170994 -0.317539 1.2857 202 122 102 
0.150181 -0.465255 1.32872 202 186 178 
-0.141677 -0.254062 1.29108 211 143 126 
-0.175329 -0.314588 1.40009 220 152 134 
-0.164217 -0.380444 1.43746 210 165 146 
-0.0462191 -0.229783 1.25544 220 147 123 
-0.180279 -0.308822 1.3666 212 156 149 
0.155301 -0.475056 1.38112 191 166 158 
-0.148194 -0.28908 1.49213 220 213 207 
0.17862 -0.416425 1.3867 205 195 192 
-0.181645 -0.331482 1.34005 222 165 148 
-0.173313 -0.352903 1.41422 212 139 114 
-0.144908 -0.31104 1.26457 213 170 156 
0.147314 -0.485211 1.42174 201 192 180 
0.190105 -0.397927 1.474 214 169 161 
-0.0497955 -0.191552 1.28188 209 146 127 
-0.098368 -0.229193 1.31027 201 171 159 
-0.47761 -0.373208 1.20157 212 153 130 
-0.122738 -0.211903 1.35751 217 151 137 
-0.152499 -0.265203 1.40652 209 183 178 
-0.162907 -0.265377 1.3715 191 147 141 
0.166606 -0.3143 1.30265 224 147 121 
-0.15282 -0.279227 1.36028 210 167 158 
-0.0927256 -0.248333 1.25526 212 136 112 
0.12864 -0.346333 1.26225 213 153 131 
0.186644 -0.412777 1.44118 216 171 164 
-0.109817 -0.272316 1.26275 214 132 112 
-0.148261 -0.289534 1.31345 220 130 106 
-0.0480663 -0.478064 1.51051 217 177 159 
-0.0548796 -0.283587 1.28592 209 139 122 
0.17718 -0.440497 1.38719 206 183 175 
0.190895 -0.411669 1.42615 209 180 169 
-0.136083 -0.437626 1.47438 214 184 160 
0.135819 -0.475119 1.35375 204 177 173 
0.146591 -0.395945 1.51818 224 87 29 
-0.11155 -0.299163 1.24313 215 144 132 
0.0316593 -0.190336 1.25091 197 132 123 
0.119284 -0.0416497 0.984001 213 64 24 
0.0879939 -0.185723 1.27704 219 93 66 
0.009212 -0.187562 1.25616 190 103 85 
0.100975 -0.20596 1.27033 216 130 118 
0.0667075 -0.274956 1.38299 221 81 45 
-0.0531564 -0.207133 1.27239 223 125 100 
-0.0358096 -0.179817 1.27055 224 81 39 
0.10222 -0.105786 1.15211 186 52 12 
0.462161 -0.446918 1.37626 200 62 23 
-0.151475 -0.367687 1.38742 218 156 152 
0.172458 -0.356979 1.31139 209 137 124 
0.0590134 -0.308921 1.22219 211 143 124 
-0.166083 -0.380486 1.39045 223 154 143 
0.0153734 -0.266387 1.2915 218 134 107 
0.0741277 -0.191082 1.27913 206 172 169 
0.139288 -0.471576 1.19737 222 161 152 
-0.183866 -0.38072 1.37331 224 156 144 
-0.126663 -0.328231 1.53713 223 146 127 
0.109708 -0.275185 1.28112 222 148 123 
-0.128914 -0.378025 1.5439 211 164 152 
0.183539 -0.313587 1.32161 218 149 154 
-0.495507 -0.166347 1.42025 222 80 38 
0.395939 -0.422678 1.40191 212 74 32 
-0.680371 -0.080611 1.66132 179 47 5 
0.0101871 -0.182301 1.27122 205 141 131 
0.21095 -0.355101 1.42167 192 83 44 
0.0233807 -0.218948 1.26172 218 139 121 
0.135712 -0.087294 1.04212 194 57 22 
0.16193 -0.396628 1.29466 211 126 113 
-0.101969 -0.455957 1.45437 224 148 133 
-0.0409048 -0.367375 1.56723 224 128 117 
-0.122837 -0.334609 1.53945 202 124 94 
-0.106639 -0.352068 1.55377 188 89 66 
-0.0927461 -0.353426 1.55469 219 169 166 
-0.0224669 -0.571415 1.79578 224 83 31 
-0.0119999 -0.195327 1.2919 207 177 164 
-0.00160522 -0.197152 1.25379 219 141 123 
0.17973 -0.426436 1.31454 212 161 146 
0.205629 -0.382286 1.36283 222 159 140 
0.0801241 -0.435715 1.39044 220 175 166 
0.142385 0.0638538 0.917644 213 76 32 
0.121503 -0.0277309 1.04481 203 71 22 
0.11827 -0.0416275 1.06021 198 63 17 
-0.0202133 -0.179574 1.28649 220 195 192 
0.0636707 -0.409933 1.62638 175 76 24 
0.179262 -0.279539 1.3057 210 143 127 
-0.0182645 -0.452319 1.54168 217 157 144 
0.0682757 -0.199814 1.26672 221 135 122 
-0.172241 -0.377537 1.33547 216 167 158 
0.101826 -0.351251 1.18867 210 127 107 
-0.0927196 -0.262162 1.25473 194 163 150 
-0.15016 -0.459641 1.75286 215 161 144 
0.0374912 -0.322532 1.18634 212 131 112 
0.00231419 -0.222018 1.24807 217 148 135 
0.0390682 -0.313578 1.28239 213 131 106 
0.0142215 -0.291525 1.20838 220 127 98 
0.0116405 -0.290876 1.20708 222 132 105 
0.0792917 -0.441493 1.3381 224 144 119 
-0.0186889 -0.495867 1.40194 218 141 122 
-0.0648256 -0.218496 1.27277 224 144 120 
-0.116731 -0.312714 1.53208 178 65 38 
-0.147476 -0.256511 1.46702 170 80 62 
-0.331592 -0.400294 1.35347 213 125 95 
-0.162406 -0.316526 1.45662 222 132 116 
0.375131 -0.0847157 1.39343 216 140 121 
0.204906 -0.401211 1.37472 217 192 187 
-0.183018 -0.525461 1.38902 220 158 140 
-0.196178 -0.367019 1.37844 213 157 144 
0.108791 -0.0663866 1.09511 160 35 1 
0.105374 -0.0825513 1.1196 188 47 11 
-0.414248 -0.178252 1.48723 164 30 0 
-0.244931 -0.241246 1.35615 215 71 32 
0.0994875 -0.123211 1.16803 172 30 0 
0.0726242 -0.188754 1.2709 208 100 74 
0.148653 -0.282319 1.26557 224 133 121 
0.202133 -0.29437 1.35258 192 92 66 
-0.138231 -0.25303 1.42562 215 154 147 
0.369916 -0.392197 1.59425 189 40 0 
0.122496 -0.0358311 1.03772 178 62 35 
-0.135305 -0.276869 1.26556 208 128 105 
-0.31851 -0.201803 1.45421 206 59 3 
-0.0873811 -0.494613 1.48562 169 165 156 
-0.171921 -0.310982 1.37017 210 134 116 
-0.14056 -0.256664 1.45647 210 156 144 
-0.133962 -0.308507 1.2682 223 144 127 
-0.15857 -0.321484 1.2772 189 147 132 
-0.153745 -0.301794 1.40826 218 141 123 
0.0667639 -0.47084 1.5076 209 158 142 
-0.0925012 -0.274911 1.2363 205 125 97 
-0.178064 -0.351685 1.39693 215 142 120 
-0.129327 -0.219454 1.35955 217 163 148 
-0.161752 -0.326586 1.31403 219 132 109 
0.174045 -0.431899 1.33984 224 200 192 
0.158581 -0.475849 1.33064 206 178 172 
-0.1704 -0.300203 1.35868 202 126 108 
0.154866 -0.342012 1.29959 221 173 154 
0.132927 -0.37122 1.25451 224 156 131 
-0.0825732 -0.216954 1.2947 204 162 145 
-0.548081 -0.315026 0.982111 218 127 97 
-0.137313 -0.243787 1.36035 212 180 169 
-0.14186 -0.257061 1.36393 204 167 159 
0.133111 -0.48224 1.40331 212 176 166 
-0.160408 -0.269023 1.40629 214 190 179 
0.0733751 -0.494073 1.49016 221 147 121 
0.139389 -0.448862 1.50689 213 177 163 
0.0914288 -0.531651 1.46017 216 160 145 
-0.0363406 -0.377429 1.56009 222 89 47 
0.12744 -0.220045 1.26948 182 69 41 
-0.136606 -0.282668 1.50506 217 77 34 
0.0532792 -0.195734 1.24785 178 62 36 
0.127311 -0.224065 1.25744 210 71 32 
-0.0130154 -0.390253 1.5637 215 86 49 
0.0634146 -0.185788 1.25422 218 73 36 
-0.109906 -0.326688 1.54359 186 96 79 
0.231922 -0.380871 1.17958 179 41 4 
-0.0872039 -0.467083 1.42342 214 141 122 
-0.000744354 -0.405604 1.57121 216 135 108 
0.0742953 -0.511942 1.50701 205 154 145 
0.02812 -0.303435 1.26033 211 135 122 
-0.0402666 -0.298327 1.22685 197 133 120 
-0.105529 -0.246696 1.27975 224 146 131 
-0.00539245 -0.19302 1.27478 207 129 113 
-0.165628 -0.310221 1.38289 217 167 156 
0.00925532 -0.473851 1.54165 208 156 144 
0.0554493 -0.228822 1.24101 224 151 134 
-0.122961 -0.434529 1.23894 219 154 135 
0.0644038 -0.285206 1.23333 222 145 129 
-0.0633362 -0.261236 1.24307 224 161 150 
0.172629 -0.43489 1.36798 220 141 127 
-0.146957 -0.340739 1.27381 221 124 100 
0.116924 -0.376732 1.53962 221 80 39 
0.169261 -0.500091 1.50851 224 136 122 
0.111861 -0.0905415 1.10375 199 60 24 
0.126427 -0.32113 1.23128 205 104 86 
0.44122 -0.429924 1.50948 178 31 0 
0.103222 -0.112526 1.14914 208 58 21 
0.416913 -0.428703 1.39732 209 60 14 
0.125731 -0.312523 1.24346 214 116 103 
0.142927 -0.397523 1.26395 216 131 118 
0.143909 -0.52254 1.26487 212 150 143 
-0.00331987 -0.186019 1.27425 213 136 117 
0.0921887 -0.163078 1.21909 213 60 17 
-0.134972 -0.314681 1.25397 224 193 179 
0.00244437 -0.252585 1.22061 224 128 104 
0.0604355 -0.272729 1.23422 224 113 88 
0.166494 -0.440297 1.30722 215 170 167 
0.083518 -0.041162 1.19083 207 65 32 
0.124776 -0.0374489 1.03369 179 60 28 
-0.059885 -0.507496 1.48954 224 159 151 
-0.1374 -0.426316 1.41684 219 137 121 
-0.0393635 -0.266814 1.20276 219 127 112 
-0.113233 -0.319956 1.51676 206 97 65 
0.101831 -0.222751 1.29173 207 120 106 
0.154925 -0.398292 1.49475 196 79 43 
0.143132 0.0663267 0.902137 217 69 30 
0.0754707 -0.276536 1.22753 222 126 111 
0.0549864 -0.307418 1.20615 218 121 105 
0.152174 -0.28014 1.28502 210 127 111 
-0.00807252 -0.204318 1.26549 216 115 97 
-0.0426788 -0.216314 1.27562 205 124 107 
-0.0595198 -0.280403 1.23363 214 127 110 
-0.0894951 -0.211993 1.30548 220 155 142 
0.0632333 -0.248271 1.26004 222 121 98 
-0.00499585 -0.451977 1.51948 223 158 146 
-0.041046 -0.504024 1.49348 200 142 134 
-0.0752982 -0.184895 1.30451 189 46 17 
0.0251461 -0.438715 1.49115 191 62 31 
-0.348164 -0.184943 1.48702 178 56 21 
0.0820662 -0.418882 1.54973 206 118 112 
0.0859338 -0.195278 1.2616 210 71 30 
-0.11862 -0.324439 1.54 199 113 86 
0.017397 -0.182304 1.26645 206 101 72 
0.090142 -0.204605 1.25798 211 69 36 
0.0233852 -0.185319 1.26425 212 108 81 
0.0726543 -0.249912 1.33763 220 70 28 
0.00342918 -0.180469 1.26588 223 81 42 
-0.445504 -0.141337 1.51193 222 84 57 
0.0264584 -0.414193 1.56632 222 120 92 
-0.0725105 -0.362228 1.54356 223 80 29 
-0.0823835 -0.368442 1.5105 221 83 45 
-0.0794244 -0.365836 1.56757 142 38 11 
-0.0335913 -0.299908 1.42353 212 129 109 
-0.149351 -0.238563 1.38307 209 137 111 
-0.179494 -0.296241 1.39896 197 121 105 
-0.148246 -0.257542 1.38872 205 176 173 
-0.162672 -0.331244 1.37026 216 129 106 
0.150991 -0.196662 1.43234 208 137 123 
-0.165565 -0.346129 1.4237 199 115 98 
-0.149281 -0.265856 1.38592 213 187 178 
-0.184617 -0.37127 1.37338 220 130 107 
-0.159551 -0.258715 1.44645 211 164 156 
-0.197095 -0.363581 1.37516 209 166 157 
-0.15161 -0.279586 1.31385 223 147 127 
0.0112232 -0.387311 1.45101 214 93 56 
0.176697 -0.327152 1.32798 204 170 166 
-0.173207 -0.362957 1.38285 207 130 117 
0.120462 -0.353877 1.22235 221 155 132 
-0.140658 -0.265245 1.3262 224 137 113 
0.168518 -0.351461 1.30123 223 177 165 
-0.128327 -0.30116 1.23796 222 183 160 
0.167192 -0.282072 1.29695 222 175 159 
0.139669 -0.339397 1.28845 216 179 167 
0.153905 -0.453871 1.40864 223 189 176 
-0.144041 -0.303008 1.25672 220 179 159 
0.169166 -0.262856 1.33648 221 86 39 
-0.125918 -0.302391 1.23091 223 184 163 
-0.144502 -0.236109 1.45224 219 87 42 
-0.155509 -0.228936 1.43676 222 85 37 
0.137543 0.0430744 0.944696 217 66 30 
0.144218 0.0704931 0.901887 217 66 30 
-0.000601517 -0.204522 1.26058 223 117 99 
0.121961 -0.227592 1.27945 222 125 112 
0.0394071 -0.444798 1.05109 220 123 101 
0.101348 -0.205074 1.2801 195 63 25 
-0.152573 -0.233943 1.42807 223 78 34 
-0.0483378 -0.357669 1.57778 207 93 67 
-0.0357149 -0.36376 1.58207 183 61 29 
-0.119089 -0.310414 1.51892 213 138 121 
0.167337 -0.241363 1.30923 223 86 39 
0.172375 -0.27469 1.33638 219 84 35 
0.133472 -0.0688218 1.09123 213 64 25 
0.0668005 -0.202379 1.27418 221 87 51 
-0.11283 -0.21427 1.3517 209 129 118 
0.0687292 -0.357427 1.43302 223 61 15 
0.100681 -0.151639 1.23015 220 69 25 
-0.135732 -0.231665 1.35987 210 125 107 
0.0852753 -0.337695 1.33687 186 71 33 
0.0597843 -0.218515 1.25542 193 135 111 
-0.100504 -0.273253 1.30718 219 178 167 
0.198384 -0.356107 1.43125 210 100 78 
-0.151939 -0.26641 1.41592 204 174 161 
-0.169262 -0.326568 1.39754 208 143 132 
-0.138185 -0.232745 1.37077 219 165 155 
-0.0856617 -0.259658 1.2852 219 177 161 
-0.116217 -0.473716 1.47969 196 173 157 
-0.151708 -0.241886 1.40341 214 127 106 
-0.110263 -0.220562 1.3253 197 148 134 
0.187131 -0.375857 1.44519 223 167 156 
0.209439 -0.34321 1.38927 216 140 119 
-0.030548 -0.500779 1.50361 224 174 160 
0.0307473 -0.222412 1.24809 220 151 128 
0.0618028 -0.238792 1.23842 217 164 140 
-0.104453 -0.294866 1.23567 202 131 111 
-0.139838 -0.243934 1.38171 216 192 181 
0.131545 -0.426483 1.52576 220 177 162 
-0.13779 -0.260096 1.17356 222 176 164 
-0.156638 -0.303348 1.31371 218 168 160 
0.0147872 -0.459736 1.53312 209 149 133 
-0.00380083 -0.466275 1.53243 220 168 150 
-0.117966 -0.344211 1.53125 218 158 131 
0.169186 -0.455486 1.63737 215 169 159 
0.180383 -0.395193 1.5225 216 84 34 
-0.130083 -0.423551 1.48585 214 181 155 
-0.16564 -0.221333 1.41815 224 81 22 
-0.0712009 -0.301715 1.26099 214 169 161 
-0.0264153 -0.268136 1.23269 216 134 111 
-0.00569408 -0.48951 1.46221 205 172 158 
0.192037 -0.44681 1.37541 219 164 150 
0.18953 -0.371844 1.42242 224 160 145 
0.200433 -0.36477 1.44835 188 75 44 
-0.101676 -0.261099 1.31714 193 122 109 
-0.161914 -0.31068 1.41393 224 160 144 
-0.118393 -0.301904 1.24992 207 158 143 
-0.0506243 -0.182613 1.30542 203 111 89 
-0.101353 -0.269921 1.27394 190 104 75 
-0.0312436 -0.18632 1.29259 208 153 145 
-0.117911 -0.294044 1.24863 211 164 155 
0.107489 -0.42252 1.546 216 140 120 
-0.160426 -0.309389 1.30001 207 160 155 
-0.171776 -0.333827 1.30855 224 148 134 
1.27095 -0.711826 1.46706 183 95 66 
0.164688 -0.500494 1.43091 220 181 172 
-0.0975375 -0.19692 1.32569 215 161 143 
-0.157289 -0.272136 1.47092 224 92 43 
-0.0805778 -0.358395 1.37742 223 86 37 
0.0712533 -0.252359 1.34629 213 74 38 
0.0629737 -0.286781 1.39502 209 69 38 
-0.0771366 -0.356886 1.55306 223 106 68 
0.130815 -0.226337 1.26897 202 71 40 
-0.132037 -0.289353 1.30276 199 167 158 
0.00177819 -0.308377 1.21043 183 112 103 
-0.049191 -0.183166 1.30958 193 109 87 
0.126365 -0.225188 1.28298 204 152 138 
-0.115316 -0.316238 1.26371 221 89 50 
0.0849581 -0.295006 1.2962 208 135 116 
-0.0916268 -0.210794 1.29195 218 165 153 
0.118367 -0.438183 1.30965 224 155 139 
-0.0365594 -0.38024 1.52068 199 143 129 
0.0982668 -0.456094 1.47933 205 154 148 
-0.049659 -0.302036 1.29626 203 162 155 
0.110738 -0.260679 1.25284 218 145 128 
0.0415186 -0.177693 1.26448 212 84 42 
-0.146019 -0.298549 1.27354 211 173 167 
-0.0639199 -0.194223 1.29216 217 159 142 
-0.0931791 -0.194736 1.32163 198 140 124 
0.182934 -0.482165 1.37594 209 187 176 
0.0675941 -0.498628 1.50384 196 145 128 
-0.00377736 -0.498061 1.50511 207 160 139 
-0.104126 -0.280558 1.2403 183 139 128 
-0.0680414 -0.304098 1.24447 200 145 136 
-0.082765 -0.247281 1.26558 204 140 126 
0.163311 -0.403057 1.50043 202 128 116 
-0.130899 -0.284119 1.32544 219 178 169 
-0.142036 -0.245992 1.42817 220 143 127 
-0.101216 -0.270458 1.27326 209 131 114 
0.00756558 -0.492343 1.50821 213 153 130 
0.171887 -0.446042 1.29422 206 157 143 
0.105328 -0.36483 1.20808 216 186 170 
-0.117727 -0.283214 1.34774 205 163 153 
-0.0659297 -0.270498 1.23442 206 155 143 
0.169252 -0.44054 1.31336 224 195 183 
-0.157025 -0.252026 1.18783 207 162 154 
0.067112 -0.290378 1.21206 216 180 156 
0.150031 -0.390181 1.50402 223 82 26 
0.157504 -0.243777 1.30864 106 32 15 
-0.14184 -0.228584 1.41512 215 183 184 
-0.139431 -0.235953 1.43054 200 161 154 
0.184024 -0.277036 1.33238 193 136 117 
-0.151818 -0.253788 1.42122 213 136 117 
-0.105639 -0.233432 1.34573 223 192 181 
0.134403 -0.289616 1.37491 224 88 34 
-0.135891 -0.224342 1.35844 221 134 114 
0.15894 -0.468628 1.34975 216 189 184 
0.0487687 -0.317383 1.2066 222 172 157 
-0.134237 -0.218548 1.38489 217 145 131 
-0.17391 -0.345651 1.32167 223 116 81 
-0.168285 -0.313592 1.26069 207 145 133 
-0.0492871 -0.175231 1.30762 220 192 187 
-0.176997 -0.365058 1.41021 224 144 126 
-0.205952 -0.406805 1.46702 219 148 125 
0.020243 -0.49011 1.50058 221 171 150 
-0.158147 -0.287328 1.28816 224 153 130 
-0.17766 -0.349782 1.33366 219 151 131 
0.0879954 -0.0840794 1.20832 213 60 19 
-0.0219801 -0.306189 1.18865 202 149 151 
0.111203 -0.351049 1.20477 214 124 112 
0.15594 -0.42663 1.26232 205 139 131 
-0.0124263 -0.492066 1.50192 217 135 119 
0.208313 -0.327477 1.381 217 160 157 
0.0180307 -0.452747 1.54684 219 133 117 
0.126851 -0.394316 1.29442 219 92 54 
-0.173436 -0.420167 1.4186 224 146 136 
0.154596 -0.298684 1.28182 212 136 126 
0.151242 -0.294047 1.292 216 134 126 
0.16993 -0.392968 1.29043 212 139 126 
0.17106 -0.302018 1.30342 224 143 131 
0.162699 -0.419359 1.29082 221 151 137 
0.167782 -0.363184 1.30951 222 136 122 
-0.0101538 -0.433962 1.55315 224 141 123 
-0.0819352 -0.399889 1.54383 222 151 138 
-0.48179 -0.165119 1.46685 200 52 10 
0.453214 -0.44052 1.40433 201 66 29 
0.377965 -0.410398 1.43917 216 61 16 
0.158862 -0.387498 1.2685 211 137 127 
-0.122223 -0.331342 1.51047 219 149 136 
-0.0995362 -0.419393 1.48088 215 158 141 
0.152197 -0.401026 1.27694 215 146 141 
0.0665353 -0.34117 1.28602 219 151 134 
0.135956 -0.331368 1.2598 217 137 117 
-0.585405 -0.132195 1.48656 172 34 0 
0.178144 -0.376872 1.36426 217 151 149 
-0.641342 0.0918613 2.07229 209 128 112 
0.374329 -0.409027 1.44487 210 68 32 
-0.182384 -0.379052 1.39803 219 138 133 
-0.0879647 -0.416646 1.52715 207 150 133 
-0.129633 -0.327404 1.52761 216 86 56 
-0.116718 -0.196431 1.35826 222 135 123 
-0.176604 -0.350085 1.28398 224 142 130 
-0.335639 -0.201355 1.45272 224 70 29 
-0.159135 -0.261329 1.44989 217 85 48 
0.0585735 -0.317885 1.44688 211 82 50 
-0.189746 -0.27002 1.37255 222 78 36 
0.1585 -0.238668 1.30853 219 76 31 
-0.163142 -0.302323 1.29162 202 116 97 
0.235605 -0.428417 1.63706 221 91 39 
-0.0591957 -0.212637 1.28786 212 185 173 
-0.0329661 -0.264469 1.28556 212 162 151 
-0.149578 -0.298727 1.35501 224 165 154 
0.677805 -0.520957 1.42701 197 80 44 
0.209946 -0.370003 1.4632 191 81 47 
-0.113716 -0.208855 1.34877 210 123 97 
-0.054033 -0.295236 1.24686 205 157 147 
0.0711542 -0.514096 1.41695 196 168 163 
-0.274641 -0.209353 1.48106 211 67 20 
-0.0595085 -0.170331 1.30698 218 107 71 
-0.161526 -0.435191 1.42964 214 184 172 
-0.104841 -0.287753 1.27455 213 127 109 
0.0875626 -0.478034 1.50113 217 188 176 
0.178943 -0.421967 1.35722 219 174 162 
-0.136428 -0.221807 1.35614 218 140 119 
0.124366 -0.388746 1.51954 218 86 39 
-0.0948973 -0.271662 1.25146 203 169 159 
-0.0173384 -0.175017 1.28677 160 111 103 
0.0246957 -0.173286 1.2842 132 56 27 
-0.011405 -0.45574 1.53575 203 172 165 
0.163152 -0.249976 1.31102 194 148 139 
-0.0297496 -0.185389 1.28382 180 127 117 
0.122114 -0.288046 1.26524 218 141 123 
-0.0532639 -0.179972 1.29995 178 114 106 
-0.102578 -0.197293 1.32313 180 141 134 
-0.0292951 -0.383722 1.51306 193 95 54 
-0.175624 -0.356074 1.31888 199 181 168 
0.0574656 -0.193175 1.26983 202 140 128 
0.0596957 -0.191824 1.27388 208 138 117 
0.0837719 -0.47819 1.48344 210 139 116 
-0.0389096 -0.218676 1.2698 202 120 100 
-0.0453114 -0.490746 1.4837 219 150 130 
0.0888806 -0.31276 1.21827 212 145 128 
-0.00677443 -0.224719 1.26092 212 114 83 
0.0753981 -0.343396 1.12475 203 175 165 
-0.108834 -0.287792 1.3094 208 149 134 
-0.0706085 -0.425157 1.49312 223 158 143 
0.0876588 -0.316392 1.21924 208 133 113 
-0.00660217 -0.289052 1.18648 219 124 90 
-0.0546958 -0.37536 1.50535 195 189 185 
0.00974967 -0.213839 1.2459 217 127 101 
0.095213 -0.315559 1.21946 223 173 156 
-0.0898892 -0.414567 1.51169 221 152 134 
-0.0913834 -0.187685 1.31936 217 186 181 
-0.0398097 -0.447252 1.53847 224 178 167 
-0.0918217 -0.216756 1.28864 213 181 173 
-0.0453533 -0.505504 1.4937 209 178 166 
0.089854 -0.19403 1.26915 211 76 23 
0.172673 -0.348829 1.303 219 177 163 
0.106192 -0.474753 1.43569 223 150 126 
-0.100873 -0.339634 1.52451 202 175 167 
0.112583 -0.405991 1.54544 222 94 42 
-0.0401005 -0.198174 1.30915 184 74 47 
-0.00117095 -0.406595 1.58319 164 59 39 
-0.0672083 -0.418216 1.58193 165 60 37 
-0.143063 -0.277681 1.49266 224 119 96 
0.131389 -0.415236 1.54565 212 88 50 
0.0779106 -0.529558 1.44926 216 174 159 
-0.175615 -0.385769 1.41195 224 136 120 
-0.171263 -0.418961 1.44517 223 192 177 
-0.149681 -0.320464 1.2761 221 177 161 
-0.166114 -0.340949 1.26683 193 93 61 
-0.0464624 -0.313021 1.44073 224 71 26 
-0.0338826 -0.26602 1.23998 219 182 177 
0.012859 -0.509051 1.48942 208 120 98 
-0.0706107 -0.380895 1.56646 172 144 141 
-0.0644165 -0.395417 1.57165 180 161 162 
-0.0438984 -0.23123 1.23259 208 191 190 
0.135552 -0.430153 1.52051 213 155 145 
-0.118587 -0.378486 1.55789 190 108 84 
0.0621518 -0.416062 1.57405 192 84 40 
0.0940833 -0.424286 1.56219 161 54 24 
0.147307 -0.415609 1.53142 166 52 23 
0.0958099 -0.302012 1.22859 216 142 121 
0.0219961 -0.19512 1.25243 219 174 165 
0.181867 -0.306959 1.30198 224 139 110 
0.140404 -0.294157 1.25002 224 140 112 
-0.0269391 -0.397904 1.57058 218 138 120 
0.0839231 -0.42723 1.55484 204 159 158 
-0.104048 -0.311626 1.39347 220 103 56 
0.00391001 -0.181893 1.28315 214 147 132 
-0.140168 -0.301949 1.50272 204 166 160 
0.0978081 -0.258974 1.22898 217 162 147 
0.183504 -0.272802 1.32251 191 162 151 
-0.0247109 -0.189221 1.28538 215 147 132 
0.00894474 -0.23436 1.23202 205 150 138 
-0.074955 -0.18259 1.32395 220 168 157 
0.0510131 -0.191592 1.26773 193 122 103 
-0.0478721 -0.18206 1.29143 218 144 126 
0.128645 -0.317054 1.3371 211 193 194 
0.0762035 -0.267093 1.36989 189 54 7 
0.158752 -0.421042 1.25955 217 156 138 
-0.10626 -0.338353 1.54253 195 175 175 
-0.176994 -0.327792 1.30666 220 184 161 
-0.0300337 -0.17537 1.29985 205 176 169 
0.0360711 -0.194709 1.26692 211 130 108 
-0.150762 -0.3194 1.29986 224 189 176 
0.171062 -0.327196 1.29705 212 160 145 
-0.15308 -0.336743 1.45817 211 167 153 
0.0393374 -0.511867 1.4637 223 140 118 
-0.133364 -0.275691 1.3596 215 159 143 
0.144261 -0.239044 1.2824 213 142 128 
-0.158436 -0.434603 1.46631 213 163 149 
0.150733 -0.422103 1.26542 220 161 141 
-0.15068 -0.347286 1.46534 218 157 144 
-0.178277 -0.752963 1.50241 221 145 124 
0.00225071 -0.190409 1.25337 223 167 155 
-0.0536193 -0.18206 1.30869 216 170 157 
-0.0476669 -0.427613 1.57892 203 187 190 
0.129382 -0.334503 1.23959 222 147 126 
0.0410872 -0.206592 1.25469 213 161 149 
-0.00165962 -0.168958 1.28278 199 167 157 
0.0820487 -0.252476 1.3589 202 56 10 
0.0955822 -0.283989 1.23187 219 179 166 
0.0389776 -0.184596 1.26797 222 143 127 
0.00440797 -0.403226 1.57526 216 148 136 
0.153615 -0.272712 1.28436 218 157 144 
-0.0773851 -0.180661 1.33987 223 95 48 
-0.104482 -0.44787 1.49358 223 142 127 
0.177618 -0.341255 1.24653 215 149 129 
0.145657 -0.388925 1.24169 221 170 152 
0.145985 -0.375413 1.23627 220 154 131 
-0.170266 -0.42612 1.44181 222 182 168 
0.0223183 -0.278065 1.19472 224 142 123 
0.170888 -0.386941 1.27198 224 153 130 
0.0654161 -0.180922 1.27496 194 194 194 
-0.0641041 -0.342502 1.35298 222 146 124 
0.0642331 -0.229593 1.24568 209 172 166 
-0.155661 -0.416463 1.45289 214 188 173 
0.0412191 -0.239769 1.24745 212 161 149 
0.163613 -0.278965 1.28197 222 172 154 
0.128093 -0.374729 1.24065 217 149 128 
0.149177 -0.34666 1.26256 222 187 173 
0.0424219 -0.170608 1.27424 210 205 203 
0.0453465 -0.203279 1.26359 219 136 114 
0.0296067 -0.539879 1.34893 223 153 132 
-0.0724955 -0.364739 1.5651 187 202 204 
0.154642 -0.458576 1.44704 220 180 164 
-0.0414822 -0.513262 1.59631 218 151 136 
0.0829768 -0.521724 1.4401 196 161 152 
-0.0774618 -0.280855 1.2525 200 155 143 
0.694363 -0.524855 1.43016 220 95 58 
-0.0143978 -0.257924 1.23181 189 114 91 
-0.100754 -0.245123 1.26953 195 137 120 
0.575345 -0.491016 1.37067 223 94 55 
0.17716 -0.427798 1.45304 172 147 137 
-0.143309 -0.256546 1.46004 197 153 142 
-0.120314 -0.28686 1.2686 223 132 113 
0.0235084 -0.183189 1.26658 215 147 135 
0.129693 -0.492642 1.37076 194 167 158 
-0.184241 -0.317288 1.16141 190 101 73 
0.156395 -0.472745 1.41249 185 161 152 
-0.156474 -0.274917 1.4633 213 163 145 
0.126879 -0.420974 1.60193 191 102 73 
0.0206706 -0.186254 1.27798 219 136 122 
0.161813 -0.448885 1.48881 196 160 157 
-0.13611 -0.246543 1.36408 202 161 150 
-0.0807215 -0.287372 1.25254 192 170 168 
-0.138334 -0.226144 1.41523 217 159 149 
0.189537 -0.389758 1.41172 222 191 182 
0.201575 -0.386793 1.45651 222 184 170 
0.115255 -0.420949 1.53856 208 126 105 
-0.129219 -0.244936 1.34221 201 162 155 
0.000458335 -0.208261 1.2611 202 163 146 
0.171135 -0.386581 1.37112 217 179 166 
-0.104633 -0.236157 1.29881 200 158 148 
0.199298 -0.361008 1.39303 214 161 144 
