ply 
format ascii 1.0 
element vertex 1156
property float x 
property float y 
property float z 
property uchar red 
property uchar green 
property uchar blue 
end_header 
0.0455847 -0.114703 2.04446 206 123 111 
-0.401428 -0.406774 2.21942 223 147 140 
0.382443 -0.33665 2.06273 224 185 184 
-0.34506 -0.252638 2.20484 211 129 114 
-0.122629 -0.0662078 2.11243 215 119 110 
-0.377749 -0.327082 2.2281 200 124 114 
0.0865654 -0.188609 1.92267 210 136 130 
-0.319197 -0.218104 2.15886 223 134 123 
-0.142726 -0.121651 2.08308 224 125 115 
-0.353984 -0.367274 2.13178 212 136 126 
-0.298389 -0.365488 2.04084 222 125 110 
0.099022 -0.11485 2.0366 201 130 121 
-0.0906785 -0.230029 1.94906 221 129 119 
-0.2972 -0.183299 2.16165 208 136 132 
-0.364154 -0.363278 2.14931 206 126 115 
-0.396493 -0.4588 2.13688 202 148 143 
-0.177819 -0.192245 2.05163 204 146 147 
0.218012 -0.568729 2.73526 219 214 221 
-0.0765309 -0.109946 2.04936 223 121 110 
-0.359912 -0.184805 2.29868 212 139 131 
-0.0488215 -0.144735 2.01648 222 112 94 
0.14712 -0.0429545 2.13205 210 130 112 
0.0958852 -0.0875197 2.05242 215 139 132 
0.117499 -0.147812 2.008 206 150 145 
0.117673 -0.072836 2.08193 219 149 135 
0.154558 -0.204326 1.97437 217 157 148 
-0.0844409 -0.142848 2.00917 221 127 117 
0.110421 -0.16721 2.00467 215 141 133 
0.136043 -0.125075 2.0516 221 134 121 
-0.390144 -0.423321 2.21959 202 140 131 
-0.278982 -0.136677 2.16845 220 129 117 
-0.402701 -0.419052 2.24132 208 133 119 
-0.167261 -0.159777 2.0776 210 125 113 
0.163539 -0.166568 2.01677 213 144 136 
-0.352167 -0.382097 2.08826 221 151 144 
-0.383072 -0.318011 2.24743 216 125 111 
-0.35336 -0.266002 2.13775 215 128 114 
0.141582 -0.0954781 2.07864 210 137 124 
-0.00296183 -0.0900243 2.05507 216 140 133 
-0.0209426 -0.0605983 2.09375 224 135 119 
-0.126498 -0.250309 1.93887 223 133 124 
-0.392293 -0.365407 2.21184 218 140 128 
-0.304871 -0.129619 2.1993 222 133 125 
-0.411339 -0.34817 2.2083 215 141 127 
-0.137792 -0.0951563 2.12689 208 129 124 
-0.0124455 -0.249386 1.94968 223 94 69 
0.0724017 -0.100715 2.06812 215 139 129 
-0.413961 -0.451674 2.21066 216 146 137 
-0.298665 -0.222193 2.16672 211 120 108 
-0.190193 -0.300065 1.97932 198 100 84 
-0.296444 -0.758502 2.42169 221 179 176 
-0.37454 -0.279254 2.23915 209 123 112 
-0.413908 -0.350026 2.33253 220 140 129 
-0.00669402 -0.11311 2.07163 204 132 125 
0.119593 -0.199904 1.95896 224 160 156 
-0.167881 -0.0447103 2.16344 224 136 125 
0.145075 -0.074603 2.09808 220 146 131 
0.108622 -0.138535 2.01975 217 147 140 
-0.289842 -0.343553 2.03585 221 141 132 
-0.415716 -0.461454 2.26525 219 149 137 
0.198402 -0.181215 2.01615 215 154 145 
-0.341122 -0.308929 2.16085 222 134 120 
-0.403163 -0.35326 2.22684 212 136 122 
0.0772643 -0.0916811 2.0789 206 133 121 
0.2782 -0.685264 2.59105 215 142 136 
0.10168 -0.155649 1.99013 219 164 161 
0.060116 -0.101154 2.06266 211 140 133 
0.108921 -0.0772769 2.08643 214 143 132 
-0.00631271 -0.097231 2.08069 220 125 111 
-0.239778 -0.147833 2.10958 212 138 139 
0.373172 -0.334209 2.05815 219 173 169 
0.440847 -0.287429 2.48517 223 177 183 
0.0659283 -0.152111 2.00174 215 142 136 
0.0600608 -0.0819991 2.10142 220 142 132 
-0.340174 -0.328713 2.12296 219 133 120 
0.168663 -0.205317 1.99092 224 168 162 
0.466554 -0.467741 2.18153 223 162 158 
-0.153326 -0.169656 2.05009 222 109 89 
-0.187467 -0.594618 2.73454 219 180 184 
0.287471 -0.637132 2.58772 219 147 142 
-0.323093 -0.740978 2.37413 222 177 171 
0.0191338 -0.030847 2.09566 220 127 110 
0.00534533 -0.0967192 2.06719 224 130 114 
-0.189591 -0.180084 2.07419 224 114 96 
-0.433601 -0.32586 2.43528 221 151 142 
0.0324741 -0.604974 2.75891 219 204 215 
0.210673 -0.0988463 2.1149 222 146 135 
0.150125 -0.106296 2.07312 220 150 139 
0.283059 -0.669405 2.61219 222 153 148 
0.090761 -0.0459947 2.11639 218 145 132 
0.217754 -0.217063 1.99678 221 167 161 
-0.391112 -0.41278 2.192 220 159 150 
0.171846 -0.152566 2.03132 212 147 140 
-0.139981 -0.602452 2.73428 216 197 205 
0.145918 -0.177527 2.0125 218 159 153 
0.0616132 -0.0510954 2.11285 222 119 99 
-0.422435 -0.415224 2.51128 224 144 135 
0.233211 -0.148919 2.07197 223 158 147 
-0.394941 -0.475264 2.17663 222 167 161 
0.0267705 -0.0461323 2.10141 220 141 132 
0.215648 -0.147225 2.05189 223 154 143 
0.152487 -0.181303 1.99426 221 158 150 
0.0338124 -0.13913 2.03349 213 165 156 
-0.0181446 -0.0679425 2.08293 219 130 113 
0.106348 -0.175267 1.99262 220 167 162 
0.0157498 -0.0126847 2.14329 216 131 116 
0.289094 -0.655118 2.6431 223 154 154 
0.168023 -0.151515 2.05387 219 160 153 
0.297123 -0.762755 2.50412 224 159 162 
0.354267 -0.770994 2.45194 218 181 172 
0.404533 -0.108449 2.29005 196 140 134 
0.336796 -0.703001 2.43597 177 130 120 
0.389953 -0.300133 2.05248 186 101 92 
0.37167 -0.21888 2.1758 219 150 126 
-0.248797 -0.58226 2.73889 205 176 180 
0.396889 -0.324512 2.0585 184 104 91 
0.335163 -0.28189 2.08952 197 112 99 
0.378993 -0.310008 2.07425 200 111 96 
0.383537 -0.270224 2.09679 184 99 89 
0.394634 -0.700699 2.43292 195 128 125 
0.325651 -0.180753 2.13646 197 143 129 
0.470312 -0.335649 2.51416 215 165 161 
0.479919 -0.353132 2.47803 224 129 110 
0.478413 -0.421154 2.11742 195 116 112 
0.373797 -0.214101 2.16169 180 115 106 
0.470174 -0.305201 2.48825 203 143 145 
0.409112 -0.327753 2.09569 205 122 109 
0.311033 -0.262851 2.06036 198 119 105 
0.47286 -0.555789 2.28339 224 134 121 
0.487279 -0.298449 2.46228 211 132 128 
0.388452 -0.234254 2.15229 221 131 111 
0.260823 -0.148481 2.09748 218 157 143 
0.461464 -0.481741 2.50608 205 108 87 
0.317382 -0.269528 2.02689 203 135 124 
0.344623 -0.175948 2.13509 207 117 103 
0.308867 -0.61993 2.5465 215 140 135 
0.312795 -0.130656 2.19886 218 130 118 
0.370818 -0.0993684 2.22745 212 148 132 
0.399437 -0.711015 2.40609 207 157 154 
0.510051 -0.408731 2.09741 221 149 130 
0.316363 -0.222932 2.04788 212 157 144 
0.358105 -0.588764 2.63667 211 142 135 
-0.17336 -0.287125 1.97146 210 146 142 
0.33962 -0.627609 2.62487 224 156 147 
0.267784 -0.179284 2.1038 220 143 131 
0.38125 -0.286957 2.04458 222 129 114 
0.490851 -0.583869 2.38973 220 127 107 
0.413121 -0.316349 2.11675 211 119 97 
0.503695 -0.634887 2.30449 212 124 118 
0.467845 -0.620842 2.34711 222 134 127 
0.355609 -0.732465 2.48987 222 170 160 
0.412795 -0.272122 2.11475 220 122 108 
0.297508 -0.138871 2.11771 200 135 109 
0.348171 -0.707684 2.50971 213 168 160 
0.42003 -0.333636 2.09735 209 127 110 
0.350918 -0.71403 2.44866 224 167 155 
0.447701 -0.271383 2.46433 209 119 107 
0.453714 -0.266474 2.42277 218 107 86 
-0.160146 -0.610643 2.71871 217 181 177 
0.45584 -0.521809 2.48415 218 121 109 
0.208293 -0.0616101 2.15923 221 143 124 
0.460304 -0.495655 2.45176 224 123 105 
0.485658 -0.342137 2.5185 201 196 202 
0.338018 -0.0986079 2.20028 219 143 124 
0.475712 -0.405012 2.11547 213 119 95 
0.215173 -0.108774 2.09201 217 153 138 
0.169307 -0.0600109 2.13565 217 142 129 
-0.297748 -0.357667 2.04011 224 135 120 
0.489316 -0.466778 2.14937 214 175 172 
-0.187921 -0.232482 2.02922 222 160 145 
0.211363 -0.103359 2.1116 221 161 145 
0.49925 -0.594985 2.27375 222 149 140 
0.456274 -0.370039 2.52226 223 132 116 
0.336675 -0.740975 2.45972 208 137 122 
0.440506 -0.203576 2.41527 186 149 151 
0.369648 -0.692255 2.48929 209 140 138 
-0.330222 -0.75289 2.3994 210 125 107 
0.387419 -0.693141 2.45854 215 141 133 
0.314298 -0.548854 2.71795 224 195 194 
0.526304 -0.341908 2.42191 217 114 97 
-0.178874 -0.0554385 2.20941 208 187 180 
0.331756 -0.30131 2.04721 218 161 151 
0.380969 -0.724577 2.47228 216 166 157 
0.475509 -0.293913 2.4602 212 130 114 
-0.217098 -0.0472838 2.20184 205 162 147 
0.395422 -0.450933 2.61125 208 147 136 
0.474334 -0.560106 2.27622 221 129 119 
0.469043 -0.270197 2.42411 191 113 91 
0.448183 -0.312018 2.50508 193 110 89 
0.371268 -0.720929 2.4679 223 173 166 
0.346706 -0.720475 2.49328 216 168 167 
0.36033 -0.327855 2.04304 222 100 67 
0.238654 -0.715128 2.62492 220 168 159 
-0.361635 -0.181957 2.26582 222 154 138 
0.341358 -0.656109 2.56237 220 147 134 
0.326409 -0.153661 2.12048 218 152 141 
0.307649 -0.201381 2.08372 220 170 151 
-0.322851 -0.280596 2.31691 215 150 135 
0.364967 -0.200566 2.11254 221 159 141 
0.399074 -0.327831 2.06862 219 165 153 
0.477138 -0.461049 2.4363 217 119 100 
0.430131 -0.161005 2.33251 224 157 154 
0.460272 -0.343229 2.13446 223 115 90 
0.0980705 0.00339291 2.16047 187 159 159 
-0.000459078 0.0192199 2.14518 165 106 109 
0.150261 0.00933619 2.16062 201 142 143 
0.00335898 -0.00353688 2.16183 222 148 136 
0.241165 -0.045684 2.17663 214 143 125 
-0.324492 -0.325153 2.07385 213 139 126 
0.314362 -0.194538 2.1602 224 176 156 
0.411874 -0.123568 2.33068 224 101 74 
0.0786797 -0.0112733 2.08994 217 136 124 
0.0782719 -0.0111869 2.08397 222 132 114 
-0.245494 -0.277256 2.01422 224 140 129 
-0.342718 -0.244967 2.18273 211 145 131 
0.261355 -0.154143 2.12614 215 154 143 
0.44663 -0.570803 2.26541 217 157 144 
0.412927 -0.128735 2.32141 214 103 76 
0.377967 -0.0972242 2.29479 208 156 149 
0.307857 -0.0555742 2.24543 214 163 152 
0.160031 -0.0246075 2.18712 219 132 109 
-0.17045 -0.212336 1.95576 222 119 101 
0.178401 -0.0162308 2.20535 189 107 89 
0.250354 -0.0830178 2.12927 221 152 135 
-0.171513 -0.598705 2.6911 212 190 200 
0.445744 -0.419745 2.29107 220 167 147 
-0.237557 -0.229916 2.05227 224 136 120 
0.139222 -0.214103 2.00064 222 124 103 
-0.184412 -0.107634 2.11144 224 128 106 
0.239368 -0.687316 2.6511 224 150 138 
-0.435445 -0.267848 2.37675 183 119 122 
-0.263014 -0.149473 2.12557 222 133 117 
-0.188482 -0.212829 2.00918 222 138 122 
-0.204642 -0.0447935 2.1806 194 142 136 
-0.210001 -0.0212379 2.15742 214 124 108 
-0.240323 -0.158678 2.10366 196 128 121 
-0.409747 -0.469203 2.5552 188 134 130 
-0.357347 -0.453418 2.09474 214 114 98 
-0.398318 -0.483961 2.49417 220 134 115 
-0.198305 -0.197101 2.0313 218 148 132 
-0.230612 -0.184436 2.08218 221 141 128 
-0.430493 -0.403394 2.42254 218 142 127 
-0.180601 -0.198246 2.03157 218 156 146 
-0.206513 -0.532791 2.71299 224 146 134 
-0.391455 -0.604009 2.28448 219 136 121 
-0.304711 -0.382366 2.0453 218 120 100 
-0.407598 -0.555702 2.39765 221 144 133 
-0.412609 -0.52213 2.40874 223 129 112 
0.429264 -0.212598 2.41037 222 187 187 
-0.358016 -0.692018 2.33676 224 177 169 
-0.0732797 -0.677111 2.67928 220 148 126 
0.50106 -0.62578 2.38946 219 138 114 
0.470242 -0.435129 2.13923 207 193 171 
0.186704 -0.827395 2.56435 223 138 119 
-0.35541 -0.267924 2.27115 221 152 137 
0.142402 0.00766524 2.15055 174 101 98 
-0.0107468 -0.0882638 2.06002 219 150 144 
-0.333242 -0.228068 2.15471 191 114 95 
-0.298961 -0.153575 2.20545 206 138 122 
-0.0968368 -0.135524 2.00899 212 120 102 
-0.378014 -0.391425 2.1753 222 146 139 
0.0828536 0.00356348 2.147 212 172 170 
-0.354352 -0.391085 2.10568 208 156 147 
-0.0691003 0.00981357 2.12938 174 105 106 
-0.3248 -0.153901 2.23781 217 131 114 
0.0202275 -0.109797 2.07552 224 166 158 
-0.0987289 -0.127446 2.04624 215 145 135 
-0.378406 -0.329559 2.15217 218 123 109 
-0.365488 -0.228047 2.27726 201 118 96 
-0.146195 -0.0686908 2.13883 221 115 92 
-0.322103 -0.181662 2.25548 207 146 135 
-0.375049 -0.278214 2.2865 214 127 110 
-0.412508 -0.292049 2.42195 201 139 123 
0.388786 -0.342754 2.06569 220 183 181 
-0.420299 -0.393519 2.47271 218 153 135 
-0.212403 -0.0715661 2.14438 222 126 112 
-0.00540711 -0.088942 2.0782 215 137 122 
0.426704 -0.427343 2.19269 203 148 147 
0.430412 -0.329188 2.51349 217 190 199 
0.385403 -0.351182 2.07125 221 165 162 
-0.207518 -0.0820292 2.18658 224 122 99 
-0.404041 -0.463256 2.31307 214 151 133 
0.0651635 -0.103048 2.05288 208 131 121 
-0.163144 -0.171641 2.05425 218 112 96 
-0.174364 -0.0810926 2.13231 223 123 107 
0.102207 -0.102184 2.06207 220 140 126 
-0.0323586 -0.613016 2.75507 202 188 200 
0.0111538 -0.0483378 2.10131 213 141 135 
0.0535946 -0.04581 2.11649 220 127 108 
0.432848 -0.177955 2.38651 196 161 164 
0.394664 -0.326287 2.09632 213 138 121 
0.321374 -0.267401 2.10259 217 134 130 
0.327511 -0.177083 2.15305 179 125 117 
-0.34171 -0.73664 2.38021 213 130 111 
0.447793 -0.254825 2.36709 207 99 72 
0.345735 -0.282866 2.03563 214 127 111 
0.487837 -0.6019 2.29659 201 116 108 
0.303368 -0.165818 2.0978 209 149 135 
0.345038 -0.811583 2.45027 218 172 155 
0.438251 -0.547073 2.46525 215 144 131 
0.285058 -0.160001 2.11701 214 155 141 
0.383559 -0.235951 2.16544 218 130 115 
0.435664 -0.252324 2.42612 216 104 75 
0.422072 -0.454639 2.56802 221 148 137 
0.108479 0.0131287 2.16188 221 129 114 
0.417648 -0.315397 2.13193 220 122 94 
0.392894 -0.305491 2.10171 213 119 96 
0.487406 -0.519294 2.33712 224 125 104 
0.486773 -0.469851 2.3868 224 118 101 
0.30198 -0.177735 2.05931 218 151 137 
0.430813 -0.562948 2.30494 210 144 133 
0.428575 -0.355473 2.13093 221 126 105 
-0.379362 -0.507528 2.20617 223 148 131 
0.335558 -0.205887 2.09104 220 144 129 
0.522662 -0.503673 2.17585 215 131 112 
-0.398797 -0.216394 2.35138 223 178 174 
-0.420268 -0.262225 2.41055 218 197 199 
0.47101 -0.399701 2.14701 224 159 149 
-0.399437 -0.316777 2.26327 220 143 132 
-0.464219 -0.334207 2.40216 186 99 86 
-0.390435 -0.503887 2.60488 196 130 117 
-0.386337 -0.181511 2.29028 219 135 117 
-0.305492 -0.564389 2.67751 209 146 143 
-0.30867 -0.600821 2.56815 207 119 100 
-0.272163 -0.604156 2.59916 221 135 110 
-0.272863 -0.70966 2.53943 191 130 113 
-0.425184 -0.565543 2.14736 209 114 108 
-0.275036 -0.751972 2.45556 183 130 121 
-0.254227 -0.572716 2.72201 198 122 112 
-0.26176 -0.59788 2.69815 187 137 128 
-0.427551 -0.280082 2.37965 181 144 138 
-0.318349 -0.542994 2.66425 205 149 138 
-0.333493 -0.710528 2.4538 200 142 129 
-0.311539 -0.769172 2.38278 196 127 121 
-0.251729 -0.717617 2.54262 215 147 135 
-0.237195 -0.737786 2.56116 195 129 117 
-0.313218 -0.755985 2.3853 212 142 131 
-0.36081 -0.537996 2.59255 202 124 98 
-0.270839 -0.707044 2.52975 219 136 121 
-0.257281 -0.779944 2.46955 221 151 138 
-0.345317 -0.717219 2.34446 195 108 98 
-0.356742 -0.370495 2.10105 210 139 127 
-0.244338 -0.69218 2.56893 201 136 121 
-0.372882 -0.513693 2.60884 189 156 150 
0.222122 -0.563126 2.72839 218 200 196 
-0.420469 -0.201368 2.31326 205 107 77 
-0.265036 -0.504611 2.69289 198 122 113 
-0.26624 -0.752768 2.50482 181 129 121 
-0.316095 -0.56977 2.6801 200 156 157 
-0.321039 -0.566431 2.58464 215 129 106 
-0.379354 -0.39173 2.1278 220 136 121 
-0.229506 -0.714553 2.56927 210 150 139 
0.100574 -0.0578219 2.15487 214 160 155 
-0.307798 -0.301636 2.0647 219 142 125 
-0.37757 -0.270097 2.20697 214 136 121 
-0.389808 -0.429412 2.1063 216 144 131 
-0.412923 -0.377383 2.34995 211 124 111 
-0.400602 -0.405116 2.18475 209 131 119 
-0.281237 -0.794468 2.44044 211 147 131 
-0.353341 -0.325614 2.14423 206 131 115 
-0.274031 -0.771884 2.44008 214 171 160 
-0.402488 -0.495883 2.15246 214 135 130 
-0.229811 -0.792025 2.48577 218 165 157 
-0.333001 -0.385198 2.02167 219 156 144 
-0.243387 -0.739855 2.50274 223 154 139 
-0.353719 -0.243544 2.20298 207 126 106 
-0.251899 -0.749909 2.50662 217 149 138 
-0.318671 -0.650785 2.51048 223 143 123 
-0.397191 -0.333488 2.18557 224 136 119 
-0.383357 -0.328579 2.18449 223 133 116 
-0.332262 -0.324216 2.07322 215 138 125 
-0.363672 -0.250784 2.18711 224 140 126 
-0.36871 -0.299017 2.17875 210 131 115 
-0.423406 -0.393512 2.43093 217 125 103 
-0.34725 -0.261931 2.14874 213 138 120 
-0.372896 -0.37637 2.10884 217 154 141 
-0.322645 -0.344272 2.04023 200 144 131 
-0.367204 -0.268308 2.1822 221 142 131 
-0.191775 -0.673508 2.64438 219 140 126 
-0.380401 -0.383725 2.13593 217 133 119 
-0.368366 -0.295008 2.16606 212 131 111 
-0.0821767 -0.62283 2.7848 212 132 117 
-0.433148 -0.385487 2.48346 217 141 138 
-0.329022 -0.283872 2.11627 210 134 120 
-0.33726 -0.4007 2.06249 217 151 141 
-0.341334 -0.75065 2.39007 221 130 112 
-0.356864 -0.346844 2.13424 218 135 121 
-0.114946 -0.674098 2.72255 222 138 119 
-0.417953 -0.4091 2.53838 184 127 130 
-0.227351 -0.0556828 2.17666 214 159 160 
-0.444339 -0.275282 2.37108 169 122 130 
-0.427816 -0.411037 2.5035 195 140 138 
-0.388707 -0.588722 2.33573 216 132 119 
-0.239802 -0.168126 2.10705 216 132 120 
-0.0912574 0.00624451 2.13542 193 112 99 
-0.41186 -0.448915 2.54459 200 152 149 
-0.274619 -0.106804 2.2441 209 138 129 
-0.212936 -0.824512 2.45736 211 161 152 
-0.0197897 0.00637746 2.13944 201 126 111 
-0.392368 -0.447543 2.55285 221 151 141 
-0.301105 -0.194146 2.16451 223 136 122 
-0.386054 -0.451107 2.58356 182 133 131 
-0.213933 -0.171405 2.07656 207 130 119 
-0.346862 -0.698896 2.33564 215 170 164 
-0.252921 -0.199932 2.09989 222 124 110 
-0.393967 -0.564284 2.42742 212 132 118 
-0.0752147 0.0158672 2.16447 219 119 91 
-0.288409 -0.0763965 2.2169 204 138 132 
-0.115115 -0.139877 2.02985 218 136 120 
0.0620651 -0.235784 1.93706 222 162 144 
-0.168941 -0.202394 2.00482 219 142 128 
0.41885 -0.536305 2.45042 222 149 143 
-0.408665 -0.567711 2.45324 219 142 129 
-0.00853929 0.0290459 2.13694 222 101 70 
-0.00681155 0.00918113 2.14026 221 144 129 
-0.344538 -0.703725 2.37801 216 168 163 
-0.32581 -0.479605 2.57693 207 219 220 
0.17354 -0.683753 2.68202 211 186 177 
0.311005 -0.579388 2.74107 216 130 110 
0.466369 -0.335134 2.37703 201 154 141 
0.235874 -0.77298 2.59755 162 133 122 
0.380239 -0.562426 2.62834 221 143 123 
-0.382844 -0.370018 2.4384 163 136 122 
0.314658 -0.580034 2.70577 217 177 168 
0.295707 -0.820804 2.50432 210 148 138 
0.223309 -0.733181 2.61914 212 146 134 
-0.174028 -0.0467978 2.20594 204 214 215 
-0.293879 -0.325312 2.09131 223 178 170 
0.350627 -0.537838 2.65949 214 145 127 
0.335299 -0.60691 2.71972 215 205 209 
-0.345776 -0.50157 2.49927 222 161 139 
0.46102 -0.349345 2.31087 209 145 127 
-0.168376 -0.132593 2.14429 216 144 130 
0.363315 -0.616689 2.5888 213 139 125 
0.235927 -0.848463 2.53534 219 202 190 
-0.381068 -0.362451 2.45261 215 221 220 
0.432165 -0.67021 2.37768 213 128 102 
0.393688 -0.495389 2.62225 204 132 120 
0.369999 -0.313992 2.04206 215 189 170 
0.470645 -0.308303 2.43399 218 121 92 
0.193443 -0.621932 2.76439 199 103 73 
0.176433 -0.609301 2.78195 221 102 66 
0.439839 -0.657545 2.30062 222 157 129 
-0.155796 -0.230083 1.98748 217 141 122 
-0.29787 -0.283485 2.06962 222 142 113 
-0.192843 -0.175697 1.99319 221 142 122 
0.444481 -0.48793 2.15352 221 166 141 
-0.340002 -0.340754 2.04337 221 133 98 
0.509798 -0.287668 2.4008 206 180 177 
0.441396 -0.350696 2.55843 192 163 172 
0.464047 -0.247801 2.44301 206 174 174 
0.383807 -0.0999005 2.32246 165 103 94 
0.457918 -0.228729 2.41048 170 133 128 
0.454796 -0.184016 2.3749 149 81 65 
0.43988 -0.297228 2.51639 157 121 127 
0.287074 -0.737796 2.5859 202 139 129 
-0.294841 -0.765778 2.38228 223 137 117 
-0.235569 -0.592595 2.62951 218 155 144 
0.40418 -0.256452 2.19773 223 146 126 
0.448318 -0.440584 2.59755 182 136 132 
0.371792 -0.562247 2.60352 206 135 131 
0.290651 -0.711108 2.61989 214 150 139 
-0.322304 -0.534012 2.64763 194 176 170 
0.360521 -0.580101 2.6159 217 156 153 
0.404508 -0.740393 2.422 212 134 124 
0.268145 -0.619181 2.74317 216 195 191 
-0.184776 -0.838745 2.46055 202 164 150 
0.411144 -0.741879 2.45681 207 137 129 
0.485146 -0.431527 2.15313 196 146 135 
-0.271051 -0.112035 2.25104 224 203 199 
0.313832 -0.781617 2.51454 220 169 159 
-0.402116 -0.205993 2.34633 192 175 169 
0.330754 -0.560475 2.69721 217 167 159 
0.306193 -0.704476 2.57945 221 138 126 
0.298953 -0.782834 2.54661 205 157 146 
-0.271556 -0.09729 2.23124 208 181 172 
0.325886 -0.6934 2.58491 218 135 119 
0.494154 -0.458974 2.16806 209 144 120 
0.261706 -0.632468 2.68191 221 145 135 
-0.265778 -0.553784 2.63726 195 190 187 
0.439719 -0.312377 2.1869 208 147 127 
-0.151247 -0.161372 2.07597 212 135 122 
-0.24256 -0.736233 2.47769 224 165 144 
0.386076 -0.266592 2.10921 216 164 140 
0.430023 -0.181485 2.38028 212 163 150 
0.302372 -0.636292 2.67603 224 161 150 
0.256023 -0.763314 2.5542 221 178 166 
0.415557 -0.278597 2.19201 216 159 140 
0.422848 -0.233237 2.28411 213 150 126 
0.431222 -0.297721 2.19836 197 125 103 
0.407671 -0.210746 2.29984 217 141 120 
0.43695 -0.243797 2.31003 213 142 124 
0.313016 -0.59868 2.71797 218 200 199 
0.436566 -0.335915 2.16241 219 159 136 
0.353472 -0.634668 2.64166 220 151 146 
0.380658 -0.181081 2.20297 216 146 125 
-0.0164245 -0.158741 2.04339 223 154 136 
0.284997 -0.756409 2.5292 219 174 160 
-0.114014 -0.0987398 2.10706 223 179 163 
0.253098 -0.65618 2.68146 201 136 123 
0.461369 -0.363528 2.24817 208 134 110 
-0.184821 -0.839492 2.43836 218 151 123 
0.459456 -0.337141 2.22652 220 139 115 
-0.234534 -0.161825 2.20099 221 157 143 
0.331477 -0.0791232 2.2416 220 158 141 
-0.221831 -0.658843 2.61622 221 152 131 
0.455751 -0.281419 2.42169 212 118 91 
0.439833 -0.419842 2.59571 220 155 153 
0.32193 -0.144373 2.16098 210 149 128 
0.400704 -0.227336 2.15648 216 149 131 
-0.0144395 -0.18921 1.99552 224 173 155 
0.353137 -0.400874 2.59905 217 125 107 
0.199095 -0.67752 2.69099 220 160 149 
0.0431889 -0.226634 1.96297 222 162 144 
0.424264 -0.346251 2.18615 222 134 108 
-0.274751 -0.141658 2.23331 223 160 147 
0.386303 -0.204145 2.18123 221 159 139 
-0.217049 -0.792188 2.48013 217 165 148 
-0.00102637 -0.242238 1.94794 224 169 151 
-0.174207 -0.825219 2.46154 223 165 142 
-0.301772 -0.398273 2.04987 224 156 145 
0.459325 -0.344897 2.21147 220 152 130 
-0.00978113 -0.144 2.04654 222 165 147 
-0.000591546 -0.252853 1.94586 223 172 152 
0.410228 -0.439879 2.5886 222 141 125 
-0.3947 -0.582867 2.27506 220 154 133 
0.44629 -0.306973 2.25648 218 141 118 
0.451956 -0.320171 2.46885 222 134 110 
0.4424 -0.302416 2.27452 222 149 127 
-0.260957 -0.726293 2.50051 193 131 117 
-0.264465 -0.780212 2.42946 170 131 124 
-0.447375 -0.286278 2.41887 192 92 69 
-0.431279 -0.233695 2.28513 222 152 147 
-0.347694 -0.544167 2.6058 222 147 127 
-0.238582 -0.715709 2.51746 193 130 113 
-0.239699 -0.695725 2.56402 195 132 119 
-0.302654 -0.592681 2.62217 215 128 109 
-0.429965 -0.327176 2.41196 198 118 112 
-0.274565 -0.670549 2.56502 194 121 105 
-0.338484 -0.664635 2.48662 196 134 114 
-0.294486 -0.716777 2.52313 202 133 120 
-0.210621 -0.650248 2.64505 196 127 117 
-0.32962 -0.703355 2.45595 222 156 150 
-0.318829 -0.566645 2.56689 211 124 98 
-0.441766 -0.230763 2.32271 182 80 58 
-0.253123 -0.741193 2.50571 213 144 133 
-0.323293 -0.622809 2.55741 198 106 88 
-0.366018 -0.708309 2.31657 213 137 123 
-0.281442 -0.72651 2.52369 221 153 140 
-0.275513 -0.756838 2.40936 215 141 131 
-0.260381 -0.769784 2.48058 224 165 153 
-0.365189 -0.493145 2.62802 202 140 131 
-0.324901 -0.545773 2.6713 216 164 160 
-0.220488 -0.799238 2.46246 206 142 130 
0.450312 -0.244023 2.44616 211 185 178 
-0.384032 -0.416376 2.09495 211 147 134 
-0.390435 -0.239841 2.37294 209 127 109 
-0.412522 -0.412179 2.16584 212 132 116 
-0.404239 -0.394943 2.15294 204 131 120 
0.1281 -0.261183 1.93062 224 148 129 
-0.362888 -0.371809 2.07672 219 146 131 
-0.21666 -0.76858 2.54818 206 141 121 
-0.376103 -0.388561 2.09098 210 139 127 
-0.266785 -0.735031 2.44943 208 122 110 
-0.324334 -0.334927 2.04214 222 160 144 
-0.197104 -0.773462 2.54605 206 140 130 
-0.184428 -0.664711 2.65825 221 138 124 
-0.310924 -0.680447 2.49318 209 131 116 
-0.279469 -0.744421 2.46445 222 168 151 
-0.326085 -0.346899 2.02607 222 163 152 
-0.372652 -0.426636 2.05365 209 145 137 
0.0601159 -0.0665797 2.15747 220 159 149 
-0.313189 -0.326516 2.02892 221 159 146 
-0.377486 -0.334172 2.1119 215 145 124 
-0.140769 -0.0394684 2.13104 216 119 99 
-0.309353 -0.34616 2.01789 217 156 142 
-0.327632 -0.220289 2.16619 223 142 127 
-0.341439 -0.43013 2.08261 223 135 114 
0.258527 -0.854874 2.49514 205 151 141 
0.202395 -0.808594 2.53763 215 198 188 
0.269507 -0.674621 2.68111 199 161 156 
0.17868 -0.783813 2.56907 192 165 165 
0.181499 -0.68977 2.71557 194 151 145 
0.205059 -0.674063 2.69392 184 127 113 
-0.232169 -0.320217 2.02405 205 154 149 
0.206025 -0.858381 2.53802 216 198 193 
0.159796 -0.832967 2.60571 206 175 158 
0.139337 -0.22252 1.98503 223 179 164 
0.183922 -0.835148 2.55743 208 185 167 
0.230559 -0.698136 2.66349 205 148 140 
0.126814 -0.192903 2.02328 209 177 162 
0.113649 -0.683691 2.69052 206 168 162 
0.182807 -0.780387 2.59089 210 180 177 
0.172419 -0.618815 2.77645 183 206 210 
0.279054 -0.683013 2.6441 218 142 131 
0.114349 -0.803831 2.62098 221 193 183 
0.0997153 -0.823778 2.60981 207 178 156 
0.360404 -0.722983 2.50928 221 150 140 
0.355645 -0.668079 2.57751 221 147 137 
0.312065 -0.67647 2.57206 220 142 125 
-0.00306445 -0.119121 2.07928 217 172 156 
-0.339964 -0.216736 2.30273 221 176 165 
0.317594 -0.717088 2.57537 216 140 125 
-0.194641 -0.194685 2.09621 218 154 141 
0.0981726 -0.854297 2.55322 201 182 169 
0.296517 -0.589746 2.65578 218 146 134 
0.229567 -0.247122 1.99197 205 185 172 
-0.291216 -0.422768 2.06854 215 141 116 
-0.175577 -0.0345231 2.18957 203 194 190 
-0.0946846 -0.674645 2.74741 220 159 149 
-0.321442 -0.338777 2.07343 224 155 143 
0.189455 -0.161165 2.07259 197 164 143 
0.396762 -0.510807 2.62432 208 129 109 
0.357767 -0.48574 2.61607 220 139 117 
0.0735617 -0.133987 2.06585 220 164 145 
0.4998 -0.372821 2.39141 215 151 127 
-0.337943 -0.63142 2.3158 221 143 113 
-0.294943 -0.244813 2.12991 223 156 149 
-0.27178 -0.333781 2.04152 213 145 131 
0.344675 -0.732904 2.42568 202 138 128 
-0.232317 -0.737713 2.57296 204 134 119 
0.113491 -0.847191 2.50841 202 118 105 
-0.00448939 -0.865132 2.55555 198 123 112 
0.282051 -0.780154 2.46382 203 151 133 
0.358399 -0.758522 2.41054 214 153 139 
-0.227834 -0.701291 2.58529 211 147 132 
-0.191625 -0.682223 2.64911 215 136 118 
-0.0973388 -0.762215 2.63924 217 131 109 
0.335938 -0.806067 2.43845 192 128 104 
-0.0399835 -0.672963 2.75847 222 140 118 
0.124852 -0.791466 2.67627 219 127 110 
0.157384 -0.00362447 2.20107 215 185 181 
-0.254867 -0.813742 2.43142 217 164 151 
0.379942 -0.737121 2.43663 208 131 105 
0.318278 -0.72314 2.52045 223 139 120 
-0.131602 -0.863019 2.51306 224 155 140 
-0.335747 -0.271823 2.25043 224 135 111 
0.0416224 -0.651542 2.76415 210 112 94 
0.269085 -0.827794 2.49284 224 135 113 
0.198737 -0.0209023 2.20054 210 131 113 
0.471467 -0.418061 2.36617 208 134 119 
0.478744 -0.351329 2.27617 206 130 110 
0.206147 -0.2 2.02727 212 117 102 
0.439079 -0.390146 2.15714 214 119 94 
0.406742 -0.170598 2.33227 206 140 120 
-0.432819 -0.431193 2.5523 219 141 114 
0.492523 -0.422119 2.2004 216 137 119 
0.380959 -0.313319 2.18034 219 119 93 
0.471743 -0.210405 2.3794 219 162 149 
0.0341809 -0.113014 2.03987 222 145 120 
0.469681 -0.430978 2.26109 211 143 124 
0.444474 -0.238127 2.34725 212 121 93 
0.438501 -0.403893 2.1552 224 124 96 
0.470523 -0.332063 2.23591 218 125 100 
0.459628 -0.384913 2.24979 219 132 108 
0.354325 -0.104101 2.27761 214 119 92 
0.480262 -0.390672 2.28724 217 124 99 
0.0667074 -0.149465 1.98485 205 147 128 
0.47172 -0.462174 2.21086 212 122 103 
0.472006 -0.277462 2.38609 220 133 110 
0.471604 -0.457906 2.18733 219 146 130 
0.459529 -0.190362 2.33686 220 147 132 
0.287425 -0.280223 1.99706 222 117 87 
0.164294 -0.0705409 2.17167 223 119 98 
0.440854 -0.266651 2.5148 189 101 73 
0.327035 -0.0714227 2.25734 187 156 148 
0.36829 -0.138012 2.16334 210 131 112 
-0.350141 -0.22437 2.3396 194 164 160 
0.207935 -0.00936728 2.19526 198 156 145 
0.507156 -0.551015 2.29237 221 125 110 
0.465885 -0.347446 2.51223 223 155 147 
0.251431 -0.147222 2.12556 218 154 136 
0.437087 -0.642922 2.39322 205 139 135 
0.43514 -0.479929 2.5391 207 130 119 
0.486283 -0.270599 2.40503 218 132 115 
0.476916 -0.595347 2.41477 218 142 133 
0.419201 -0.179558 2.38498 214 138 130 
-0.369964 -0.697974 2.36309 218 141 126 
0.506067 -0.516032 2.37442 222 125 109 
0.183946 -0.0559756 2.1902 218 145 127 
0.463706 -0.479253 2.4496 223 125 106 
0.461513 -0.497162 2.22027 207 157 145 
0.471176 -0.44122 2.17358 208 137 130 
0.445838 -0.436999 2.19924 210 132 121 
0.20216 -0.218602 1.95968 210 121 102 
0.474492 -0.401806 2.32211 202 120 98 
0.210066 -0.0150789 2.25834 188 127 121 
0.481592 -0.237796 2.34751 202 122 101 
0.392097 -0.351086 2.14607 217 131 113 
0.144409 -0.102544 2.18329 218 115 91 
0.459119 -0.531274 2.33196 219 169 159 
0.473552 -0.430793 2.39647 224 158 141 
0.431137 -0.4548 2.19388 216 127 103 
0.171122 -0.183053 2.02281 214 123 102 
0.385454 -0.114868 2.29773 214 141 137 
0.496456 -0.346496 2.28046 196 135 119 
0.438546 -0.229057 2.40046 223 134 114 
0.465194 -0.39125 2.22714 219 128 101 
0.316644 -0.0513064 2.23799 209 156 148 
0.24979 -0.261098 2.0114 215 111 90 
0.455216 -0.435443 2.12842 210 121 98 
0.484483 -0.270763 2.43706 224 158 144 
0.475087 -0.454684 2.19624 218 135 113 
0.302135 -0.0582717 2.22921 217 142 132 
0.48669 -0.249656 2.38868 219 164 147 
-0.24376 -0.827992 2.48222 223 148 121 
0.140987 -0.0508237 2.19509 223 130 100 
0.299415 -0.274934 2.06454 207 134 121 
0.288773 -0.276982 2.06844 219 153 140 
0.447406 -0.472637 2.47495 223 150 131 
0.320155 -0.780831 2.46497 224 166 149 
0.33765 -0.124653 2.289 223 105 72 
0.477748 -0.324912 2.43149 221 140 119 
-0.160346 -0.00672128 2.15407 223 94 57 
-0.160345 -0.603512 2.75245 214 164 158 
0.457425 -0.611804 2.33949 221 173 165 
0.0798537 0.00171496 2.14762 217 160 145 
-0.269929 -0.583234 2.6993 216 150 136 
0.354018 -0.29905 2.04026 221 137 121 
0.0707501 -0.148828 2.02584 217 136 109 
-0.00507552 -0.158966 2.01685 223 175 158 
0.464239 -0.249904 2.44992 224 174 160 
0.3009 -0.266249 2.03513 215 156 139 
-0.288533 -0.747033 2.47459 217 153 144 
-0.371078 -0.178855 2.2943 214 168 167 
-0.280224 -0.364333 2.03833 219 138 133 
0.272505 -0.663909 2.61129 218 134 129 
-0.41786 -0.392579 2.51281 185 126 121 
-0.429419 -0.291701 2.39362 200 145 137 
0.364576 -0.327994 2.05709 216 151 145 
-0.198662 -0.175203 2.04275 223 125 108 
-0.386262 -0.472095 2.18665 221 136 125 
-0.0733904 -0.0924135 2.04599 207 129 115 
-0.313596 -0.107305 2.20705 218 147 147 
0.225156 -0.55615 2.68293 215 196 211 
0.0654653 -0.0895362 2.08164 220 155 138 
0.291391 -0.528296 2.70477 205 189 204 
0.297996 -0.505007 2.63393 219 189 193 
-0.172452 -0.0180537 2.17736 224 115 99 
-0.203128 -0.0439077 2.21105 194 125 127 
-0.249524 -0.331495 1.9907 211 112 103 
-0.304144 -0.114723 2.22381 201 160 164 
0.102238 -0.0689328 2.09709 198 135 123 
-0.0230366 -0.0811891 2.10083 202 138 132 
-0.312564 -0.290278 2.10434 200 121 113 
-0.336543 -0.244562 2.20394 197 111 96 
-0.113901 -0.0927094 2.10724 167 100 101 
-0.380051 -0.50184 2.1123 198 150 150 
-0.300937 -0.103636 2.24612 214 153 156 
-0.302853 -0.170079 2.18919 224 149 138 
-0.322637 -0.35622 2.08535 207 129 125 
-0.323381 -0.357142 2.0883 216 137 134 
-0.31087 -0.218978 2.15311 198 121 115 
-0.325933 -0.224901 2.1602 186 110 102 
-0.363434 -0.281696 2.23868 196 112 102 
-0.0598266 -0.0897863 2.06016 207 126 123 
0.136802 0.0228978 2.16139 195 84 63 
-0.141601 -0.104455 2.11401 210 124 116 
-0.354918 -0.686419 2.31808 202 163 164 
-0.429063 -0.223084 2.35215 198 76 54 
-0.327644 -0.289505 2.1315 201 127 117 
-0.389045 -0.348697 2.2387 203 124 114 
0.0955666 -0.0714885 2.0747 204 140 128 
-0.357962 -0.272601 2.23518 223 140 130 
-0.369227 -0.340483 2.16635 216 141 129 
-0.056948 -0.137545 1.98422 213 121 109 
-0.335651 -0.241417 2.19612 188 107 95 
-0.0127084 -0.242164 1.96644 216 117 105 
-0.19682 -0.0584806 2.21181 204 121 115 
-0.196479 -0.0380608 2.17045 189 126 132 
-0.359356 -0.34557 2.18408 207 137 131 
-0.101687 -0.0332099 2.11357 197 109 101 
-0.334781 -0.246115 2.17998 206 112 100 
0.0577437 -0.115992 2.01852 206 127 118 
-0.277664 -0.163133 2.15151 223 143 131 
-0.273043 -0.0585847 2.20399 215 167 162 
-0.390615 -0.20962 2.29122 216 158 150 
-0.369385 -0.17643 2.31536 215 143 143 
-0.376646 -0.35502 2.31866 196 121 113 
-0.337302 -0.230329 2.20954 209 135 125 
-0.214096 -0.0658402 2.17814 206 124 117 
-0.0721279 -0.0377603 2.1218 218 126 113 
0.117308 -0.0426237 2.10653 202 123 105 
0.0591571 0.0139003 2.12681 185 105 93 
-0.416573 -0.223696 2.32759 203 132 124 
-0.386217 -0.343324 2.23838 194 116 104 
-0.334128 -0.295282 2.09337 197 131 123 
-0.235451 -0.192671 2.09674 187 111 107 
-0.291563 -0.372335 2.02279 207 119 109 
0.128802 -0.203862 1.94826 218 147 138 
-0.347255 -0.273436 2.1993 221 131 115 
-0.364244 -0.309734 2.22916 213 130 119 
-0.300539 -0.184201 2.14836 208 136 132 
-0.114136 -0.244071 1.95925 219 135 128 
-0.286736 -0.240922 2.13849 224 123 107 
-0.134816 -0.143079 2.05958 204 137 134 
-0.215111 -0.145839 2.11573 223 131 120 
-0.188384 -0.0544492 2.15361 222 134 126 
-0.393019 -0.341802 2.23609 204 126 115 
0.0590427 -0.234359 1.96468 217 134 130 
-0.11806 -0.0452511 2.17183 222 124 115 
-0.324614 -0.284738 2.1224 217 128 120 
-0.372535 -0.432851 2.21631 206 140 132 
-0.365816 -0.247709 2.21362 221 131 117 
-0.369153 -0.437067 2.1408 221 151 142 
-0.372112 -0.311746 2.1692 212 136 126 
0.00565197 -0.218183 1.96088 218 136 125 
0.145217 -0.17097 2.00512 217 142 134 
-0.0728693 -0.257268 1.98211 219 127 112 
-0.357921 -0.354306 2.14357 214 131 119 
-0.38886 -0.377605 2.19917 213 137 127 
-0.321237 -0.197371 2.20365 219 134 124 
-0.268681 -0.34747 2.01692 221 120 109 
-0.356628 -0.280764 2.19789 208 130 116 
-0.0216272 -0.0411698 2.11845 220 122 109 
-0.441972 -0.32352 2.42972 215 128 118 
0.0428598 -0.169018 1.9759 213 137 129 
0.0949035 -0.15342 2.00745 213 150 143 
0.0941437 -0.169601 1.97207 210 136 130 
-0.372076 -0.408275 2.15135 215 139 133 
-0.315941 -0.279129 2.13129 219 128 116 
-0.349151 -0.317981 2.15977 211 127 116 
0.135528 -0.106751 2.05524 213 139 127 
-0.371566 -0.25962 2.23511 223 138 123 
-0.157603 -0.285045 1.98191 211 113 99 
-0.321897 -0.360164 2.05343 223 133 121 
-0.0780793 -0.221864 1.96542 218 122 111 
0.120969 -0.145891 2.02667 210 157 152 
0.299435 -0.0392221 2.22055 216 100 78 
-0.0375718 -0.0768552 2.07171 194 117 111 
-0.311649 -0.263426 2.31581 215 128 114 
0.0961612 -0.177151 1.98553 223 162 156 
-0.337805 -0.35186 2.13535 220 131 119 
-0.0229886 -0.246467 1.97645 209 116 101 
-0.322428 -0.376128 2.06075 219 135 126 
-0.199781 -0.139119 2.09775 215 115 100 
-0.18225 -0.0912978 2.1167 216 120 105 
-0.405968 -0.401066 2.24271 212 139 130 
-0.366604 -0.27009 2.23851 212 130 121 
-0.412537 -0.241966 2.29022 222 170 165 
-0.369109 -0.472403 2.1666 203 133 127 
0.0286709 -0.134379 2.0232 211 127 114 
0.31554 -0.292018 2.01495 212 168 165 
-0.392553 -0.431837 2.22662 207 145 133 
-0.425773 -0.277916 2.33561 224 154 138 
0.0515388 -0.101084 2.06062 201 127 118 
0.119377 -0.115049 2.05058 219 149 134 
-0.396132 -0.394247 2.12105 207 141 137 
-0.394348 -0.301433 2.29407 211 127 115 
0.0273267 -0.039038 2.09003 222 122 106 
-0.373338 -0.439589 2.1739 217 156 149 
0.0587219 -0.157321 2.01152 206 140 134 
-0.394209 -0.29489 2.27837 218 136 124 
0.274527 -0.662992 2.61227 219 132 125 
-0.0183358 0.0204383 2.14146 219 137 130 
-0.383948 -0.347658 2.23014 218 143 132 
0.435594 -0.352942 2.54962 208 178 186 
0.110243 -0.123359 2.03139 218 135 119 
-0.299382 -0.217876 2.13483 224 125 114 
0.00776087 -0.148763 2.03282 222 136 125 
-0.140173 -0.617726 2.73581 218 194 196 
0.00481125 -0.14967 2.0148 210 134 130 
-0.193663 -0.13044 2.08902 217 113 97 
0.106904 -0.102313 2.05276 210 130 121 
0.119155 -0.201888 1.99283 224 147 138 
0.274222 -0.269905 2.00484 220 171 169 
0.127292 -0.156655 1.99909 207 141 133 
-0.207698 -0.16979 2.10933 219 113 101 
-0.36058 -0.694522 2.32216 219 172 167 
0.0130884 -0.17152 1.97418 222 139 134 
-0.335189 -0.323855 2.12484 222 135 125 
-0.0191539 -0.149093 2.02687 221 126 112 
-0.0073733 -0.0356382 2.06653 222 131 112 
0.0432434 -0.0848779 2.07753 215 134 123 
-0.225604 -0.164119 2.09889 223 133 124 
0.15621 -0.016506 2.1765 221 138 127 
-0.207809 -0.178573 2.06784 224 119 106 
0.170724 -0.0561643 2.12928 221 131 111 
-0.394129 -0.426711 2.21015 215 151 140 
-0.0305372 -0.0380618 2.06523 221 124 107 
-0.388851 -0.406433 2.18872 213 156 149 
-0.386029 -0.411558 2.18331 208 150 143 
-0.412268 -0.440673 2.29156 222 151 140 
-0.0134809 -0.038061 2.17645 224 128 114 
0.229145 -0.139863 2.10692 221 148 139 
-0.348781 -0.313119 2.21748 221 127 109 
0.12706 -0.196939 1.96743 212 150 143 
0.0802348 -0.19353 2.04526 212 137 128 
-0.148832 -0.606932 2.73468 217 195 203 
-0.393321 -0.418647 2.16986 220 161 156 
0.200362 -0.017625 2.19091 208 130 117 
0.162368 -0.0919872 2.10246 211 141 126 
-0.0584737 -0.166892 2.03005 218 123 109 
0.166163 -0.0287062 2.16258 215 140 126 
-0.187644 -0.594941 2.73303 219 180 184 
0.0957006 -0.0985841 2.1023 220 139 131 
0.449681 -0.435496 2.17784 219 172 166 
-0.0183303 -0.0319122 2.12584 221 123 108 
-0.409855 -0.389014 2.31723 219 146 133 
0.460469 -0.28945 2.50971 220 168 169 
-0.359417 -0.307832 2.15228 223 130 115 
0.0890871 -0.0572616 2.08367 221 132 116 
-0.382229 -0.377971 2.20134 223 159 154 
0.138883 -0.0977103 2.0746 222 148 136 
0.0782387 -0.195544 1.99172 224 144 136 
0.129994 -0.182635 1.96697 213 147 139 
-0.00441292 -0.0169066 2.12492 216 129 117 
-0.411792 -0.47964 2.30473 224 152 139 
0.0845379 -0.0472468 2.10458 220 149 135 
-0.185433 -0.599808 2.70683 223 186 190 
0.0637409 -0.108999 2.06187 213 121 105 
0.0514764 -0.134514 2.02967 223 139 128 
-0.40825 -0.384185 2.31354 221 145 136 
-0.20316 -0.190353 2.05175 221 111 92 
-0.387484 -0.349198 2.24847 205 129 120 
-0.236916 -0.152205 2.11402 220 149 147 
0.0117098 -0.149477 2.00086 220 141 134 
0.285311 -0.765508 2.52184 208 152 153 
0.385591 -0.459296 2.68005 219 211 234 
0.0911077 -0.135512 2.03601 223 158 149 
0.417514 -0.314783 2.48872 218 190 203 
0.047414 -0.0129625 2.13101 219 134 122 
0.288291 -0.733758 2.44236 223 157 156 
0.133836 -0.139402 2.0154 221 154 143 
0.0827833 -0.123747 2.05096 222 123 105 
-0.209426 -0.195621 2.07291 224 114 95 
-0.197001 -0.0473883 2.16122 224 152 154 
0.00531083 -0.143194 2.0164 223 167 167 
0.192185 -0.0327474 2.15332 224 145 132 
-0.0035379 -0.145555 1.98358 217 159 152 
0.00492963 -0.0420597 2.09384 223 131 119 
0.109161 -0.0166497 2.17132 223 139 125 
-0.0225157 -0.068518 2.09215 222 136 123 
-0.388327 -0.437133 2.17781 223 162 152 
-0.0122661 -0.1694 1.9514 223 171 166 
0.431388 -0.269839 2.45913 215 175 183 
-0.0197281 -0.0454992 2.07342 221 126 113 
0.443753 -0.282462 2.48857 224 181 189 
0.280859 -0.777662 2.52647 219 154 154 
-0.41863 -0.27684 2.43701 205 138 113 
-0.371294 -0.165875 2.33661 209 141 116 
0.438991 -0.195713 2.34403 197 90 56 
0.306061 -0.282493 2.00711 183 143 128 
0.450566 -0.306913 2.43539 224 108 60 
0.336646 -0.304851 2.02339 197 145 125 
-0.266306 -0.251714 2.06271 223 140 111 
0.385115 -0.504586 2.6558 222 114 85 
0.352839 -0.0830187 2.26164 212 100 60 
0.319837 -0.76316 2.43727 223 173 158 
0.299785 -0.793727 2.45919 222 168 148 
0.467017 -0.467756 2.15326 223 163 135 
-0.386196 -0.271566 2.43904 183 127 126 
-0.430859 -0.243539 2.34447 202 142 138 
-0.326165 -0.693776 2.40982 212 133 119 
-0.401997 -0.233715 2.34256 174 144 140 
-0.374939 -0.490295 2.53889 224 145 125 
-0.465081 -0.371098 2.44794 175 115 117 
-0.340279 -0.557191 2.6442 191 138 134 
-0.338397 -0.562248 2.67266 207 88 55 
-0.335426 -0.699295 2.34719 220 128 115 
-0.309001 -0.747932 2.4276 205 157 148 
-0.300885 -0.615817 2.58777 221 142 131 
-0.383238 -0.520197 2.56644 198 127 122 
-0.264579 -0.330458 1.98922 208 115 100 
-0.352919 -0.680861 2.31939 206 117 101 
0.22893 -0.542583 2.7209 213 103 73 
-0.343775 -0.535733 2.6405 210 154 147 
-0.206501 -0.221308 2.0244 208 143 127 
-0.278469 -0.172834 2.13991 214 149 135 
-0.163905 -0.626536 2.765 221 132 120 
-0.25237 -0.753161 2.46232 224 172 163 
-0.330587 -0.59442 2.54941 208 133 118 
-0.305548 -0.604515 2.601 216 153 140 
-0.303963 -0.288983 2.0353 208 131 118 
-0.290059 -0.606717 2.58647 215 140 125 
-0.261965 -0.589033 2.71249 203 144 139 
-0.394655 -0.403948 2.24451 219 109 92 
-0.303422 -0.642931 2.482 207 136 121 
-0.235232 -0.165517 2.13528 221 137 116 
-0.256852 -0.323107 1.96774 221 153 135 
-0.282361 -0.751303 2.45103 223 178 174 
-0.216865 -0.2421 2.02985 219 170 157 
-0.229386 -0.244413 2.0079 219 164 148 
-0.192277 -0.254498 1.97298 222 163 147 
-0.00651455 -0.60292 2.77641 183 89 59 
-0.348728 -0.114544 2.25327 183 88 56 
-0.0406386 -0.623429 2.75961 185 134 124 
-0.243362 -0.0426398 2.18407 222 103 77 
0.362551 -0.173837 2.28241 210 126 102 
-0.383628 -0.174204 2.27768 210 101 76 
-0.289582 -0.34853 1.98309 211 130 107 
0.345493 -0.758912 2.44455 223 140 114 
-0.423632 -0.251112 2.3917 223 112 85 
0.462929 -0.472063 2.16734 221 151 132 
0.173884 -0.754737 2.57587 221 131 102 
-0.442578 -0.313314 2.39417 215 105 69 
-0.381502 -0.195331 2.33176 192 134 126 
-0.304457 -0.106633 2.25438 212 146 150 
0.127287 -0.236074 1.94104 218 151 153 
-0.263434 -0.162367 2.13983 189 120 121 
-0.103624 -0.171617 2.02496 211 134 132 
-0.338352 -0.420826 2.05325 186 116 111 
-0.14182 -0.276466 1.9711 199 99 89 
0.379275 -0.333154 2.06078 218 179 176 
-0.124927 -0.0897368 2.09062 187 108 105 
0.0254289 0.00341284 2.14548 180 134 136 
-0.106259 -0.1339 2.02999 203 157 156 
-0.369441 -0.490493 2.13231 214 165 164 
0.124126 -0.166995 2.00971 212 136 127 
-0.0371255 0.00476991 2.1703 213 162 157 
-0.196992 -0.128552 2.1055 212 117 106 
-0.313369 -0.199406 2.16504 207 139 135 
-0.296897 -0.200271 2.15479 199 122 111 
-0.353672 -0.320773 2.12177 198 123 115 
-0.255923 -0.163065 2.18093 179 116 111 
0.0270913 0.00913462 2.18532 210 168 167 
-0.116891 -0.102863 2.10131 224 145 144 
0.112296 -0.109528 2.0923 202 130 119 
-0.357873 -0.272661 2.19792 204 124 110 
-0.35431 -0.274718 2.22473 212 127 113 
-0.341452 -0.319003 2.11754 200 118 109 
-0.356342 -0.345655 2.11966 214 128 120 
-0.357177 -0.458246 2.09507 178 112 110 
-0.350669 -0.288407 2.20869 204 119 105 
-0.00877519 -0.119493 1.99584 217 123 108 
0.0535456 -0.039236 2.09201 213 118 103 
-0.376599 -0.62738 2.2637 206 167 161 
-0.00440259 -0.078051 2.08523 220 157 151 
0.118329 -0.0820604 2.07251 210 136 124 
-0.387255 -0.343523 2.234 201 123 111 
-0.32508 -0.293501 2.12269 191 119 108 
0.153674 -0.0997578 2.05232 222 148 134 
-0.375436 -0.354566 2.18446 212 140 134 
-0.293677 -0.209318 2.1697 223 131 118 
-0.332026 -0.105774 2.25234 222 188 193 
-0.359607 -0.464209 2.10513 196 146 147 
-0.208636 -0.130971 2.13064 206 136 137 
-0.384772 -0.41557 2.16637 217 159 154 
-0.179587 -0.100967 2.15882 216 119 106 
-0.396116 -0.337117 2.24098 209 128 115 
-0.325936 -0.177144 2.20447 221 131 119 
0.358227 -0.0654638 2.2715 211 95 66 
-0.0958427 -0.136934 2.07546 213 123 119 
0.11202 -0.0592622 2.0934 218 129 113 
-0.181862 -0.160285 2.05427 221 151 145 
0.282144 -0.0213479 2.22882 211 96 71 
-0.0380343 -0.00604865 2.2304 222 131 125 
0.0250374 -0.0972201 2.04786 220 128 113 
0.143773 -0.122997 2.06076 220 134 122 
0.204582 -0.125323 2.09234 224 153 144 
0.102273 -0.0789431 2.07095 214 143 132 
0.0529926 -0.159672 1.98074 204 138 132 
0.0616552 -0.154493 1.98039 215 144 135 
-0.437993 -0.335552 2.41913 216 151 143 
-0.210124 -0.193541 2.05195 223 114 95 
-0.396422 -0.349605 2.28139 215 141 127 
-0.132782 -0.613583 2.73313 223 197 199 
0.109045 -0.0811463 2.06577 217 148 135 
0.180455 -0.572 2.75091 211 195 204 
-0.205459 -0.248458 1.9995 220 112 96 
-0.396238 -0.35345 2.29496 216 139 127 
-0.404357 -0.384331 2.26706 216 138 128 
-0.324102 -0.310813 2.03476 219 148 128 
0.460925 -0.347082 2.49462 214 110 80 
0.468958 -0.301617 2.42059 220 99 60 
0.462196 -0.274132 2.43615 194 95 62 
0.471146 -0.376771 2.47072 219 118 88 
-0.393859 -0.608472 2.29555 216 131 95 
0.452714 -0.266851 2.41422 213 104 70 
0.454264 -0.365643 2.52129 219 126 103 
0.452466 -0.309798 2.43449 224 113 74 
0.46475 -0.444808 2.15215 221 157 133 
-0.0965286 -0.595292 2.77654 218 105 73 
0.42344 -0.465099 2.5984 221 128 96 
0.37765 -0.120047 2.35838 222 162 141 
-0.0051995 -0.706365 2.69595 223 192 178 
0.465433 -0.411992 2.34407 221 141 111 
0.418863 -0.398275 2.13706 222 172 159 
0.345547 -0.593672 2.65148 178 132 131 
0.396692 -0.471631 2.64036 152 105 93 
0.109251 -0.646572 2.77857 155 142 137 
-0.169791 -0.0904703 2.21213 209 219 216 
0.187243 -0.692415 2.67415 208 160 158 
0.221297 -0.61484 2.76519 180 206 206 
0.338064 -0.639418 2.62539 204 129 120 
0.205828 -0.802857 2.57065 198 173 169 
0.130735 -0.666299 2.76229 181 146 134 
0.458518 -0.351404 2.24456 210 152 135 
0.0301163 -0.781877 2.62968 222 203 185 
-0.227338 -0.325145 2.05462 209 164 156 
0.331154 -0.699037 2.5835 211 136 124 
0.470499 -0.417503 2.14575 188 187 177 
0.119799 -0.076482 2.12065 224 173 156 
0.130643 -0.222447 1.9389 213 173 160 
0.280474 -0.72423 2.57791 211 163 161 
0.275241 -0.658706 2.70698 210 167 161 
0.473655 -0.460093 2.34037 196 145 129 
0.461721 -0.347285 2.31315 205 143 121 
0.306552 -0.641586 2.67346 207 137 126 
-0.198135 -0.205526 2.07065 208 145 130 
0.470933 -0.432508 2.12616 223 213 199 
-0.273024 -0.694276 2.42037 208 164 146 
-0.0681192 -0.674067 2.75293 179 133 123 
0.185266 -0.647668 2.72902 207 161 145 
0.357932 -0.656396 2.56463 216 137 119 
0.112908 -0.8377 2.57534 190 153 136 
-0.299617 -0.747946 2.3497 186 142 120 
-0.349322 -0.626777 2.22813 201 126 104 
-0.267456 -0.33023 2.08141 224 159 149 
0.473368 -0.484584 2.51832 214 137 110 
0.217506 -0.219972 2.02493 211 183 165 
0.494338 -0.391022 2.2976 222 174 155 
0.328532 -0.689664 2.6096 221 142 131 
-0.264122 -0.253722 2.12159 198 144 133 
-0.345936 -0.332048 2.25407 213 134 112 
0.501191 -0.449865 2.35957 210 139 115 
0.109975 -0.802953 2.62483 189 160 150 
0.308806 -0.624255 2.7213 217 210 216 
0.333307 -0.603267 2.66511 211 163 162 
0.468235 -0.390336 2.56235 197 171 164 
-0.292585 -0.153859 2.24369 216 182 171 
-0.266739 -0.6263 2.54209 209 168 150 
0.112246 -0.178472 2.04226 211 161 142 
-0.339514 -0.451875 2.14309 215 144 117 
-0.0723103 -0.0497846 2.14456 222 165 158 
-0.044386 -0.167455 2.02427 220 152 135 
-0.155068 -0.0705458 2.19134 195 190 186 
-0.00926366 -0.674542 2.76638 211 188 171 
0.470465 -0.453436 2.54232 210 152 138 
0.413443 -0.436042 2.54814 209 133 113 
-0.200058 -0.17897 2.09219 223 158 148 
0.299778 -0.608799 2.59352 220 149 136 
0.441439 -0.271197 2.24256 219 177 160 
-0.334187 -0.38496 2.10314 224 146 120 
0.454 -0.430064 2.1307 194 150 137 
0.212252 -0.724691 2.62148 220 149 133 
0.485518 -0.410759 2.25309 219 182 164 
-0.0240778 -0.119891 2.08122 214 184 173 
0.527701 -0.489579 2.41609 219 138 117 
-0.250598 -0.338782 2.01764 222 161 151 
-0.163233 -0.10663 2.16011 221 167 148 
0.472276 -0.435888 2.16839 193 199 188 
-0.276396 -0.682239 2.42758 211 168 151 
0.227725 -0.852872 2.49675 201 178 162 
-0.239064 -0.110068 2.22708 218 225 224 
-0.348512 -0.315926 2.22294 216 132 102 
0.282334 -0.634704 2.68623 221 160 149 
0.474047 -0.463322 2.54098 219 165 154 
0.442687 -0.406801 2.56402 219 159 149 
-0.214371 -0.169017 2.13025 219 145 130 
0.420726 -0.625302 2.39909 219 135 108 
-0.318481 -0.456769 2.08133 207 145 132 
-0.322031 -0.289273 2.23014 221 139 114 
0.190245 -0.202075 2.02154 205 178 160 
-0.0600411 -0.0496831 2.15382 224 180 172 
-0.284098 -0.532989 2.57591 215 217 216 
