ply 
format ascii 1.0 
element vertex 1163
property float x 
property float y 
property float z 
property uchar red 
property uchar green 
property uchar blue 
end_header 
0.0856921 -0.500844 3.12239 174 113 110 
-0.188508 -0.0816518 2.28307 171 98 101 
-0.0984757 -0.592247 2.8196 166 135 124 
0.288333 -0.471801 2.97524 176 123 121 
-0.106901 -0.594637 2.83266 168 148 133 
-0.058315 0.219599 2.19982 168 101 87 
0.0443588 0.0743686 2.46303 175 106 95 
-0.107776 -0.597993 2.861 190 148 139 
-0.093372 0.16873 1.32619 211 158 156 
0.1111 -0.207847 2.0663 182 128 131 
-0.13403 0.129224 2.60192 194 114 108 
0.111706 -0.534786 2.96835 183 116 113 
-0.150048 -0.498682 2.96607 180 149 135 
0.331185 -0.558068 2.86542 176 119 119 
0.23671 -0.407504 3.06552 183 143 143 
-0.313479 -0.284499 2.50188 198 176 169 
-0.179349 -0.0622292 2.41886 176 110 112 
0.069806 0.0218975 2.38919 176 113 116 
-0.192307 0.056994 2.61056 189 111 100 
-0.098783 0.130428 2.5903 193 112 97 
-0.0514982 -0.0246846 2.39456 181 112 116 
-0.248656 -0.486757 2.75357 176 155 139 
1.07164 -0.362751 3.33739 218 94 82 
0.391236 -0.290885 2.79306 179 120 116 
-0.137192 -0.561269 2.79565 173 133 120 
0.27447 -0.385026 2.83532 176 117 112 
0.232527 -0.495414 2.96372 188 122 121 
-0.202545 -0.0312771 2.43466 187 116 117 
-0.200078 -0.0398009 2.47006 188 118 118 
0.210505 -0.650054 2.89038 182 133 128 
0.462827 -0.41619 2.72882 201 95 91 
-0.266543 0.0406228 2.60582 189 129 117 
-0.0249519 0.066002 2.39618 190 114 111 
-0.115197 -0.0393219 2.29148 182 102 101 
-0.108614 -0.163958 2.65938 176 102 104 
0.248699 -0.595831 2.85703 192 130 128 
0.00366204 -0.552096 2.96725 184 123 114 
0.459476 -0.369363 2.76008 179 141 136 
-0.0987761 0.051582 2.44629 182 96 91 
0.377604 -0.045091 2.52613 192 168 159 
0.572439 -0.616894 3.22954 184 131 130 
0.401219 -0.306902 2.82419 197 142 139 
0.329162 -0.494962 2.95136 185 123 123 
0.369037 -0.271956 2.88587 190 141 139 
-0.0818504 -0.61341 2.79302 190 130 123 
-0.311103 -0.179377 2.5566 194 129 122 
-0.198676 0.0548472 2.584 204 119 104 
-0.162554 -0.597808 2.75324 184 154 143 
0.248817 -0.485144 3.02943 179 116 110 
-0.219532 0.0670479 2.61888 184 115 103 
0.355033 -0.356143 3.03295 198 139 137 
0.160997 -0.559837 2.98611 190 129 128 
0.380527 -0.261118 2.9063 206 162 160 
0.190199 -0.526224 2.95131 181 107 103 
0.236773 -0.488381 3.08248 192 117 116 
-0.0359834 -0.624817 2.85031 203 135 130 
0.252473 -0.592785 2.8446 178 115 112 
0.137753 -0.569519 2.90528 186 116 111 
0.372281 -0.36853 2.6883 194 140 138 
-0.0973178 -0.624299 2.72751 192 136 131 
0.0386858 0.133654 2.63619 187 100 86 
0.417752 -0.611782 3.38321 186 118 118 
0.0329214 0.0817744 2.48606 187 107 101 
-0.324893 -0.368281 2.60431 207 180 167 
0.33259 -0.461547 2.90588 185 128 125 
0.340382 -0.487419 2.941 185 123 121 
0.281527 -0.566455 2.83639 187 131 131 
0.061016 0.0480645 2.41956 177 113 113 
0.0835067 -0.566873 2.97672 194 121 118 
-0.0812861 -0.638327 2.76377 202 146 136 
-0.180873 0.0848212 2.55296 196 121 111 
0.343461 -0.460359 2.76388 189 131 133 
0.13542 -0.213202 2.05483 189 135 136 
0.185387 -0.53728 2.9678 183 116 113 
0.18659 -0.54459 2.98488 186 121 120 
0.335218 -0.528715 2.80864 190 127 127 
-0.0371342 0.0529542 2.412 176 99 96 
0.0662548 -0.586538 2.98495 188 113 110 
0.369858 -0.382593 2.88111 190 126 125 
-0.0670987 0.131367 2.53027 188 94 80 
0.332305 -0.367461 2.92263 198 125 124 
1.31634 -1.15003 3.89169 209 111 104 
-0.00050531 -0.647312 2.8405 189 127 123 
0.357448 -0.572993 2.86892 193 124 123 
-0.0741667 0.0526354 2.4856 175 93 91 
0.358983 -0.319203 2.86487 197 130 129 
-0.109586 -0.61927 2.78752 200 139 134 
-0.0393418 -0.586594 2.92637 197 125 119 
0.850234 -0.410693 3.27138 199 74 61 
0.0538749 -0.535257 2.94789 196 122 116 
-0.110213 -0.609016 2.79675 194 134 130 
0.173576 -0.344469 2.62791 195 120 121 
0.31677 -0.414076 2.87251 193 124 124 
-0.10098 0.0555263 2.44785 188 105 102 
-0.166043 0.0732382 2.57764 204 101 90 
-0.00849786 -0.653861 2.76925 186 123 121 
-0.057195 -0.497153 3.06364 185 189 178 
0.46181 -0.501647 2.8931 194 134 132 
-0.0694657 -0.680986 2.76526 224 87 70 
-0.0359168 -0.61656 2.81765 193 127 124 
0.167198 -0.562068 2.94165 186 113 110 
0.106147 -0.612787 2.84723 192 126 123 
-0.0296788 -0.642697 2.79567 187 123 117 
0.119711 0.16502 2.56759 182 128 117 
0.429903 -0.352664 2.91097 188 128 128 
0.218588 -0.466343 2.94052 187 108 104 
-0.231505 -0.488248 2.83567 171 140 124 
0.255247 -0.426421 2.9223 195 122 121 
0.331088 -0.481644 2.9589 184 119 118 
-0.0587456 -0.590267 2.94075 197 125 118 
0.0430639 0.179987 2.5656 176 123 103 
0.218155 -0.501961 2.97516 188 119 118 
-0.0514124 -0.653457 2.82122 191 128 120 
-0.176661 0.0621227 2.27939 192 104 99 
0.735469 -0.315041 3.07035 217 90 78 
-0.095513 -0.60264 2.89471 195 131 123 
-0.0301152 0.0558892 2.42633 183 106 103 
-0.0611596 0.128361 2.52911 195 98 83 
-0.117196 0.0433577 2.47886 186 105 103 
0.383256 -0.375359 2.60831 197 143 143 
0.413215 -0.0389493 2.59512 214 91 76 
0.225732 -0.403675 2.84899 179 127 133 
0.295045 -0.37429 3.09467 207 189 178 
-0.283978 -0.231134 2.4754 190 147 155 
-0.055736 -0.000239807 2.37297 220 150 125 
0.430929 -0.217013 2.94456 200 146 136 
0.4224 -0.429666 2.83163 224 205 212 
-0.273894 -0.178263 2.47019 220 169 176 
0.36872 -0.0534359 2.51649 203 170 150 
-0.227024 -0.120031 2.39322 220 138 129 
-0.338532 -0.248415 2.5372 198 155 160 
-0.228391 -0.142823 2.41252 213 142 141 
-0.383506 -0.0506076 2.70692 216 171 156 
-0.338432 -0.198253 2.5948 207 145 147 
0.394626 -0.186791 2.99295 212 198 186 
0.444714 -0.197835 2.93607 209 109 93 
-0.228106 -0.119903 2.44007 206 141 137 
0.422177 -0.289983 2.88297 220 194 200 
0.268985 -0.321192 3.00291 197 133 136 
-0.374032 -0.075177 2.70543 175 148 131 
0.335681 -0.426339 3.01952 180 129 121 
0.386152 0.00639028 2.8079 184 110 88 
-0.284917 -0.438742 2.55488 222 94 76 
-0.214644 -0.143304 2.41573 205 138 137 
0.050244 -0.524675 3.10905 203 150 124 
0.380418 -0.515873 2.86287 200 160 148 
0.382964 -0.231081 2.98662 215 153 152 
0.431554 -0.251258 2.84905 200 102 107 
-0.383285 -0.252147 2.81957 194 163 149 
-0.430361 -0.27049 2.85389 190 161 147 
-0.768215 -0.437334 2.72382 222 94 73 
0.370443 -0.240489 2.99982 222 174 169 
-0.272899 -0.0648163 2.54123 214 141 131 
0.0295268 -0.0546563 3.14027 198 171 157 
0.346672 -0.145361 2.95209 193 126 121 
-0.383763 -0.404774 2.96875 187 121 106 
0.256787 -0.488751 2.9863 205 137 117 
-0.161057 -0.645361 2.75134 183 128 99 
0.276329 -0.00567194 2.64177 217 142 125 
0.553601 -0.63147 2.69049 187 109 89 
-0.233093 -0.0961091 2.41488 203 160 157 
-0.000499031 -0.477119 2.54402 206 121 109 
-0.268273 -0.533037 2.68364 201 126 107 
-0.320145 -0.501647 2.70085 211 127 108 
0.122243 0.00501817 2.41315 211 164 142 
0.240596 -0.539061 2.9875 201 140 115 
0.421394 -0.131136 2.62184 221 100 81 
-0.232853 -0.57385 2.68007 182 121 101 
-0.281198 -0.10438 2.45452 182 117 115 
-0.204402 -0.0221258 2.51596 219 187 180 
0.191363 -0.432003 3.07173 172 145 139 
0.19207 -0.0130629 2.5168 175 114 117 
0.326229 -0.29456 3.06419 167 95 94 
-0.318435 -0.21008 2.56677 204 178 171 
0.0647189 0.00172905 2.35224 199 114 108 
0.249044 -0.301011 2.78446 180 123 127 
0.243971 0.168247 2.69429 207 164 149 
0.31369 -0.348425 2.97862 188 131 133 
-0.259957 0.0207919 2.59828 177 97 86 
-0.261223 0.0525076 2.59974 151 111 102 
0.942265 -0.766996 3.48462 212 106 96 
0.146545 0.17327 2.64944 158 111 98 
-0.188112 -0.111097 2.37557 221 159 159 
0.49221 -0.404229 2.79892 157 114 111 
-0.1075 -0.0312468 2.4015 177 104 111 
-0.259054 -0.127351 2.51289 165 106 109 
-0.270924 0.0567617 2.54902 159 116 103 
0.0873848 0.0243069 2.39421 158 104 105 
0.151768 -0.467963 3.00998 181 121 120 
0.0877884 0.0231828 2.37189 152 89 90 
0.213853 0.0682352 2.48651 186 163 155 
-0.00726879 -0.0122886 2.35645 169 118 119 
1.04532 -0.473606 3.3284 220 98 84 
0.279041 -0.00256345 2.4173 182 163 158 
0.361578 -0.517894 2.84728 177 131 132 
0.138489 0.060299 2.44485 177 133 131 
0.176887 0.184649 2.65118 210 175 163 
-0.223147 -0.0127955 2.57181 175 113 106 
0.103128 0.0220217 2.38663 165 109 110 
0.336763 -0.508999 2.82481 163 116 113 
-0.0665526 -0.0284893 2.43856 203 129 137 
0.0685755 -0.647027 2.83023 170 116 110 
0.431421 -0.421661 2.81541 187 143 142 
0.0583186 0.047533 2.4045 174 111 113 
-0.0715182 0.000954667 2.43873 195 127 134 
0.170933 0.192102 2.60653 178 138 125 
-0.0993082 0.011258 2.38908 199 128 133 
-0.154102 -0.602646 2.7239 208 168 158 
0.0190773 0.0353588 2.41442 162 94 93 
-0.112727 -0.462287 2.94404 177 143 139 
0.442673 -0.360536 2.70768 164 125 121 
-0.0649932 -0.0785999 2.61097 169 95 105 
0.311454 -0.415091 2.90271 171 115 114 
0.214323 -0.395238 3.02286 171 142 137 
0.0910018 0.0344775 2.40095 191 134 136 
0.325286 -0.522265 2.81457 178 119 121 
-0.0523747 -0.187552 3.68997 213 172 167 
-0.135662 -0.00725552 2.35766 206 135 137 
0.114993 -0.629427 2.82238 205 141 140 
0.0679108 0.0600861 2.43463 172 106 107 
-0.351393 -0.316445 2.65732 165 131 116 
-0.210018 0.0162373 2.52776 204 126 116 
0.345745 -0.343063 2.98318 195 129 129 
-0.0429651 0.0167827 2.40797 173 104 108 
0.0911312 0.0860012 2.48324 176 104 95 
0.0764732 -0.528866 3.06586 204 143 139 
0.253386 -0.526903 2.90047 198 134 135 
0.0920087 0.116349 2.7639 170 93 78 
0.0470069 0.0706534 2.44022 176 98 93 
-0.205555 0.0270641 2.5343 190 112 107 
0.504837 -0.522683 3.03478 221 193 193 
-0.056102 0.00604199 2.43032 167 95 100 
0.440063 -0.207607 2.72728 188 167 158 
0.449781 -0.243553 2.72873 192 180 169 
0.0265104 0.0779978 2.43015 187 99 92 
0.380036 -0.382621 2.919 212 163 162 
-0.216264 -0.108088 2.44294 185 121 124 
0.306187 -0.612239 2.9028 195 144 142 
-0.339452 -0.0199792 2.65364 199 135 125 
0.113253 0.163729 2.58435 177 125 110 
-0.12211 0.127097 2.53626 171 98 86 
0.288511 -0.561749 2.82469 179 116 117 
-0.165291 0.142913 2.42484 179 92 82 
0.0773006 0.0526903 2.40493 170 105 104 
0.262139 0.0861709 2.53412 197 165 154 
0.0408413 0.023414 2.38539 168 104 105 
0.12105 -0.637954 2.85475 185 119 118 
-0.0842532 -0.0898144 2.49528 174 101 103 
-0.130088 0.143696 2.54935 196 124 115 
-0.106997 0.126457 2.5696 180 94 84 
0.329965 -0.522306 2.80104 178 119 119 
0.0408785 0.0310107 2.42674 170 103 107 
-0.241563 0.0161614 2.53658 199 120 115 
0.0599844 0.143924 2.73185 170 90 76 
-0.0862512 0.039882 2.49201 194 112 109 
0.406136 -0.300764 2.64142 185 147 142 
0.35874 -0.350131 2.81393 191 142 140 
0.230862 -0.538352 2.80384 179 113 108 
0.340066 -0.533642 2.82269 188 127 125 
-0.190827 -0.0459947 2.40736 184 113 115 
-0.106892 -0.467707 2.92583 173 109 106 
0.243329 0.0621778 2.5044 196 171 164 
0.0280141 0.0918126 2.46315 178 94 87 
0.368054 -0.381469 2.88734 179 117 118 
-0.208234 0.0134616 2.49632 203 113 102 
0.062053 0.0268901 2.36489 171 109 112 
0.344317 -0.346094 2.99601 195 135 135 
-0.236695 -0.118668 2.4082 179 117 120 
0.357782 -0.597978 3.36784 194 119 120 
0.363926 -0.368815 2.96273 179 110 108 
-0.0190333 -0.485766 2.95865 195 153 151 
1.20554 -0.83972 3.63326 187 109 97 
0.380395 -0.411119 2.95614 182 116 118 
0.34714 -0.361656 2.91057 197 123 121 
0.405592 -0.479764 2.78355 195 129 127 
0.294087 0.00265579 2.41277 204 182 174 
0.0338433 0.0257589 2.34634 173 108 109 
-0.0361688 0.0565613 2.37711 181 95 90 
-0.0682313 0.0588454 2.47085 178 94 88 
-0.0891873 -0.000922327 2.50658 189 105 102 
0.00165046 0.0381002 2.35016 187 119 122 
0.0331172 -0.628951 2.85808 194 106 99 
-0.223509 -0.105482 2.42044 198 132 136 
0.423757 -0.231203 2.81484 180 125 119 
0.386344 -0.429451 2.86684 181 123 121 
0.367795 -0.330175 2.89689 197 130 129 
0.353918 -0.0531659 2.49833 196 172 166 
1.00781 -0.410975 3.1321 213 95 79 
-0.0319741 -0.69895 2.85133 192 129 125 
-0.00331193 -0.311184 3.2535 178 104 105 
0.187605 -0.542276 3.00695 187 125 125 
0.164748 0.143828 2.89765 181 128 117 
-0.177899 -0.0480773 2.44028 184 113 113 
0.0902734 -0.664889 2.85614 178 121 118 
-0.12668 -0.00770843 2.43323 187 111 109 
-0.256794 -0.104369 2.51159 191 121 123 
0.134354 -0.346618 2.5895 188 108 105 
0.127308 -0.499015 3.02877 199 127 125 
0.414169 -0.256761 2.85786 185 123 123 
0.202243 -0.524191 2.94533 191 119 115 
0.383383 -0.422505 2.92574 176 129 124 
-0.163575 -0.456272 2.97887 210 197 190 
0.0362677 0.0769165 2.48439 181 102 98 
0.370113 -0.401727 2.91165 193 127 126 
-0.135927 -0.56856 2.82108 197 140 131 
-0.0315866 -0.598109 2.95914 198 123 117 
-0.19964 -0.0356118 2.47343 191 118 119 
0.0295301 -0.635098 2.88461 194 128 123 
0.934319 -0.436234 3.12021 221 97 84 
-0.108789 0.0731709 2.87636 193 106 94 
-0.203037 0.046968 2.59693 205 108 95 
0.415167 -0.268007 2.73182 180 135 134 
-0.336362 -0.364724 2.64185 220 106 96 
-0.101452 0.0343479 2.82002 205 82 67 
0.111462 -0.469993 2.80723 187 111 108 
-0.0876547 0.124826 2.49942 198 93 78 
0.0637898 -0.634258 2.88311 191 125 122 
-0.200774 -0.0140752 2.55757 190 106 100 
-0.181315 -0.0143657 2.53219 190 107 103 
0.323164 -0.154404 2.42316 190 156 150 
-0.0237873 0.0250792 2.82063 224 80 63 
0.422243 -0.065567 2.51647 180 139 138 
0.334789 0.0428262 2.59734 222 183 176 
0.396872 -0.3797 2.82595 220 176 172 
0.297597 0.095499 2.61572 204 132 126 
0.247443 -0.0101182 2.43853 200 124 113 
0.307387 0.133321 2.72489 214 168 157 
-0.294547 0.0147872 2.64491 222 166 153 
-0.163282 0.0514791 2.47584 193 145 133 
0.178985 0.179403 2.69506 152 108 97 
0.320207 0.0377868 2.54255 217 179 169 
-0.213011 -0.146558 2.38045 176 147 142 
0.231036 0.172803 2.693 209 150 138 
-0.2214 -0.175565 2.4374 222 188 179 
0.305911 0.0414544 2.54971 203 163 156 
-0.163404 -0.581864 2.76686 198 139 132 
-0.216117 -0.0550151 2.64338 219 171 160 
0.352202 0.0239434 2.63183 216 177 174 
0.024738 -0.644591 2.73654 205 117 111 
0.34532 -0.0635883 2.5761 192 149 146 
-0.323623 -0.182699 2.57443 183 159 148 
-0.284579 -0.0912186 2.61579 187 139 132 
0.139252 0.179171 2.66288 171 116 104 
-0.233993 -0.0918379 2.45606 214 178 174 
0.349312 -0.377911 2.94121 202 122 117 
-0.25777 -0.503466 2.75713 214 139 133 
0.338255 -0.298435 3.00949 169 128 125 
0.407451 -0.339845 2.64255 180 138 134 
-0.248322 -0.0062714 2.56597 193 123 114 
0.223097 0.0181863 2.44105 172 111 104 
-0.285387 -0.117789 2.66367 222 165 159 
-0.196847 -0.0664024 2.54842 187 133 127 
0.206257 0.160712 2.64221 180 111 95 
-0.263709 -0.117892 2.459 176 141 135 
-0.256327 -0.0910916 2.53716 186 145 143 
-0.219902 -0.0656945 2.64542 185 115 110 
-0.236802 -0.0742269 2.48761 218 176 174 
-0.150398 0.078715 2.60394 210 140 125 
0.120382 0.032783 2.42004 190 101 96 
-0.269561 -0.0917579 2.53492 210 160 153 
0.151965 -0.567618 2.94705 201 106 98 
0.0373399 0.164658 2.59153 209 112 93 
-0.254182 -0.541082 2.6411 181 134 125 
0.270126 -0.357835 3.02602 184 162 156 
-0.31146 -0.380454 2.77442 207 154 142 
0.267851 0.0678642 2.57615 192 153 143 
-0.230348 -0.0835481 2.47569 172 127 126 
0.391857 -0.398195 2.87214 189 126 126 
0.144961 0.164185 2.70084 200 141 129 
0.341479 -0.558168 2.80764 186 110 107 
-0.21823 -0.0648901 2.47306 210 167 163 
0.358453 -0.363325 2.90964 193 114 109 
0.120507 0.049934 2.36438 200 102 96 
0.347021 -0.356497 2.90849 200 125 122 
-0.225745 -0.547898 2.74655 212 147 142 
-0.0671836 -0.0417187 2.37626 179 104 101 
0.209671 0.0391669 2.43224 186 100 94 
-0.245321 -0.448543 2.98911 206 180 169 
-0.286073 -0.409823 2.82945 189 129 114 
-0.0372614 0.166921 2.60642 200 129 114 
-0.256042 0.0529647 2.6041 217 163 149 
-0.229812 -0.0736779 2.51514 184 143 141 
0.308847 -0.320311 3.0268 182 167 162 
0.307577 -0.0258011 2.47952 191 129 128 
-0.211048 -0.0371201 2.47347 202 150 146 
-0.23712 -0.0172701 2.52866 188 131 126 
1.11674 -1.02242 3.73002 221 97 84 
-0.254258 -0.133121 2.46476 193 161 157 
-0.241373 0.0121625 2.55983 191 119 108 
0.382402 -0.114035 2.52971 207 148 145 
0.223053 0.0690958 2.46352 186 107 101 
0.186569 0.152713 2.59866 199 89 77 
0.170421 0.117144 2.72379 224 153 143 
-0.216561 -0.0410204 2.51009 186 128 123 
-0.165327 0.0719361 2.61151 213 143 131 
-0.290981 -0.0448746 2.78458 190 121 112 
0.0444574 -0.53317 3.01934 203 111 108 
0.342045 -0.489864 2.86484 193 131 129 
0.426971 -0.308157 2.71974 209 161 157 
-0.247559 0.00901594 2.6655 214 150 142 
0.099671 0.0171541 2.398 196 94 92 
-0.036361 0.182629 2.60809 202 150 146 
-0.152683 0.12508 2.58411 210 155 140 
0.0667719 0.0581046 2.39134 197 96 91 
-0.00747107 -0.597045 2.99179 214 98 90 
-0.254161 0.00379346 2.55031 203 140 129 
-0.326893 -0.0232391 2.66682 202 158 143 
-0.316608 -0.363214 2.75226 211 163 151 
-0.175726 0.0439029 2.69815 208 133 118 
-0.260458 -0.110728 2.50839 207 172 166 
-0.237048 -0.0865475 2.48098 198 161 156 
-0.251095 0.0247667 2.6333 203 129 116 
-0.193619 -0.59542 2.75992 193 126 121 
-0.153076 -0.0165407 2.43532 183 134 129 
0.01469 0.161594 2.62728 220 78 61 
0.32302 -0.427257 2.94261 196 116 112 
-0.0395182 -0.617471 2.91948 205 99 89 
-0.203545 -0.101296 2.56536 207 153 149 
-0.122704 -0.474742 2.93522 201 122 113 
0.332425 0.0750405 2.75215 191 144 137 
-0.176476 -0.095254 2.43625 208 179 174 
0.134641 -0.524171 2.93444 191 106 98 
0.1297 0.0512304 2.48939 196 97 91 
0.195727 -0.60035 2.8248 194 106 101 
-0.295704 -0.400539 2.80541 197 148 130 
-0.21316 -0.0640766 2.54183 189 155 149 
0.120215 0.0374555 2.41891 178 101 101 
-0.204509 0.0929327 2.58702 202 139 124 
-0.143243 -0.53463 3.05155 195 109 100 
-0.2295 -0.548709 2.76951 202 131 124 
0.264282 0.0247705 2.54093 194 124 119 
0.46377 -0.217621 2.6306 209 184 176 
-0.10527 -0.64035 2.77779 204 141 131 
-0.271318 -0.0141208 2.68291 201 134 122 
0.278502 -0.535902 2.85645 196 121 123 
-0.190908 0.104555 2.50698 190 121 110 
0.447528 -0.262176 2.70886 202 164 163 
-0.0572569 -0.571329 3.11969 199 108 98 
0.320771 -0.598291 2.88317 199 121 118 
-0.0106706 0.0242136 2.42802 203 101 95 
-0.0618098 -0.501428 3.00788 191 120 116 
-0.00827108 0.020026 2.4157 206 105 98 
0.105604 0.0277099 2.35671 192 105 100 
-0.0590006 0.125307 2.6157 210 102 81 
-0.0344178 -0.603358 2.85061 207 100 90 
0.196754 -0.491477 3.00943 197 111 106 
-0.221494 -0.182321 2.5852 193 162 158 
0.204692 0.117571 2.56707 209 104 91 
0.215157 -0.455732 2.99593 204 118 113 
-0.230851 0.0666311 2.53923 199 126 111 
0.438412 -0.309149 2.75563 210 171 169 
0.174695 -0.464978 2.92993 209 107 98 
0.0592132 0.0146339 2.37387 197 98 93 
0.01889 -0.4795 2.96095 188 124 123 
0.139612 0.00968056 2.4124 182 97 94 
0.307624 -0.581304 2.87916 198 121 116 
0.148023 -0.485383 3.09449 203 130 129 
0.0210212 0.145576 2.58868 223 82 60 
-0.186887 -0.469528 2.94672 201 121 111 
0.121241 -0.46788 2.91167 198 102 99 
-0.179709 -0.0202726 2.51893 206 131 126 
-0.178397 -0.0388713 2.6611 204 115 110 
-0.030188 -0.0209592 2.39992 202 104 99 
0.289792 -0.502675 3.2195 200 127 121 
0.377811 -0.0595188 2.55251 205 152 152 
-0.310167 -0.384451 2.94959 211 176 162 
0.229321 0.176068 2.68286 211 145 137 
0.194474 0.0806666 2.87675 199 123 113 
-0.235991 -0.447893 2.98137 218 187 179 
-0.215 -0.55321 2.71946 186 181 169 
0.137031 0.162653 2.69191 176 101 90 
0.410832 -0.382219 2.82763 202 151 149 
-0.298313 -0.435297 2.69527 183 147 143 
0.089927 0.058506 2.43524 215 140 137 
-0.135761 0.0399706 2.52066 208 106 96 
-0.16872 0.0224665 2.5124 204 123 118 
0.151156 0.183548 2.49572 211 88 72 
0.292435 -0.00151895 2.47817 183 109 105 
0.177939 0.105713 2.5681 205 86 72 
0.245072 0.173683 2.69329 223 114 87 
-0.172472 -0.455379 2.9699 215 191 182 
-0.219265 0.115977 2.61479 224 174 161 
0.261203 0.12127 2.6456 186 113 107 
-0.178634 -0.00636861 2.50463 208 163 156 
0.300745 0.125438 2.7262 215 184 172 
-0.159694 -0.490002 3.07723 193 163 152 
-0.156024 0.0189544 2.51787 206 152 146 
-0.160374 0.138436 2.59026 213 178 159 
0.242733 0.0293875 2.46094 203 138 132 
0.237047 0.13306 2.66372 187 108 104 
0.46877 -0.291323 2.62199 181 148 144 
0.247147 0.0585779 2.57759 182 105 99 
0.217824 0.094733 2.46878 192 95 85 
0.278999 -0.333121 2.84075 197 117 115 
0.209326 0.143882 2.64432 200 126 115 
0.371062 0.0616657 2.77095 183 144 142 
0.223933 0.0617338 2.46734 198 116 110 
0.0534208 0.0414576 2.41362 208 116 110 
0.360984 -0.342034 2.85911 190 113 107 
-0.210548 -0.0203277 2.48261 179 120 117 
-0.0619242 -0.501214 3.03895 186 126 122 
-0.100717 -0.624389 2.79143 198 128 127 
0.323131 -0.500939 2.85591 196 124 124 
0.170567 -0.522551 2.94236 203 123 118 
0.0915251 0.0269776 2.40867 182 100 96 
-0.200528 -0.45597 2.75692 208 113 103 
0.341492 -0.379268 2.8797 218 145 142 
0.160772 -0.652625 2.8043 211 106 88 
-0.101368 -0.64832 2.82755 184 122 119 
-0.167352 0.122211 2.60775 222 173 162 
0.112918 -0.528543 2.96005 214 123 117 
-0.158737 -0.528431 2.92612 206 109 100 
0.423686 -0.366111 2.644 208 140 143 
-0.235291 -0.529966 2.69619 195 132 129 
0.300343 -0.378611 2.95995 189 125 123 
-0.125886 0.136228 2.59615 204 140 124 
0.252779 0.0806844 2.53641 204 168 155 
0.255143 0.0357284 2.50939 195 119 111 
0.397745 -0.410828 2.81167 197 157 155 
-0.162792 -0.581025 2.77079 188 133 129 
0.207733 0.0870392 2.53941 192 104 95 
-0.134834 0.0737422 2.70398 204 100 82 
-0.17232 0.0868806 2.63729 197 116 106 
-0.135792 0.0780541 2.55852 203 103 89 
0.213821 -0.33839 2.83966 185 144 141 
-0.0155692 -0.660098 2.78639 203 125 119 
-0.195296 -0.0113651 2.49115 191 150 141 
-0.231539 0.0778217 2.64046 207 154 142 
0.216333 0.00582014 2.44773 188 128 126 
-0.117208 -0.00755402 2.56853 203 113 107 
0.164679 -0.555174 2.9691 199 114 106 
-0.174159 -0.554818 2.81812 219 101 92 
0.0689296 0.0066256 2.4002 189 108 111 
0.266082 -0.374278 2.86657 204 122 121 
-0.0748081 -0.620087 2.73031 203 129 125 
0.304448 0.00593134 2.40762 187 114 112 
0.0522085 0.0184215 2.38075 186 98 96 
0.224216 0.0412063 2.46826 182 102 93 
0.24309 -0.594524 2.83654 195 112 106 
-0.19761 -0.551972 2.78046 205 124 118 
0.13733 -0.461926 3.05052 189 121 116 
0.32878 -0.491712 2.72859 200 125 122 
0.271056 -0.55598 2.73374 198 115 113 
0.202532 0.032361 2.43273 185 114 113 
-0.166344 -0.0995899 2.41117 183 153 151 
-0.12933 -0.642285 2.79937 197 123 120 
-0.00450966 0.147257 2.63268 223 83 65 
0.070134 -0.488881 3.05662 194 117 110 
-0.158815 -0.624169 2.7363 198 133 129 
0.0396304 0.050917 2.22464 202 103 94 
-0.139362 -0.53991 2.8986 191 115 105 
0.332969 -0.52525 2.78738 192 117 116 
-0.178925 -0.510673 3.03686 192 120 110 
0.220806 0.0342266 2.47611 193 108 102 
0.183101 -0.643326 2.79131 217 81 58 
0.125045 0.141592 2.5497 211 85 68 
0.00575726 0.177327 2.61189 186 100 87 
0.0638784 0.0735515 2.14672 172 107 106 
0.0857152 -0.036892 2.84402 201 94 85 
-0.0280738 0.126333 2.67593 223 83 64 
-0.0306424 -0.644567 2.80972 193 114 107 
-0.00594205 0.0299482 2.41499 198 99 92 
-0.00205778 0.0169865 2.41932 202 103 96 
-0.0756488 -0.034331 2.39183 194 118 117 
-0.0879249 -0.588035 2.86937 176 116 118 
-0.388514 -0.149105 2.74675 200 155 147 
-0.390792 -0.160933 2.72753 174 90 75 
-0.0789221 -0.623662 2.87089 155 125 132 
-0.141688 -0.645996 2.78538 177 128 126 
-0.197258 -0.487882 3.00148 202 166 157 
-0.117996 -0.521209 3.02592 171 134 131 
-0.374706 -0.188737 2.7704 156 102 92 
-0.219043 0.128175 2.97236 219 165 153 
-0.0342091 -0.559585 2.95203 168 127 135 
-0.0390836 -0.573901 2.94317 174 135 143 
-0.324918 -0.392586 2.44436 223 137 127 
-0.380412 -0.146889 2.72575 224 176 165 
-0.0908384 -0.508965 3.04372 168 138 135 
-0.0979591 -0.576945 2.89539 152 114 112 
-0.202356 -0.460558 2.99425 198 141 131 
0.159727 -0.452666 2.98579 156 146 155 
-0.0869815 -0.570091 2.92665 218 167 172 
-0.313872 -0.423076 2.92908 213 166 158 
-0.377526 -0.159518 2.73351 156 106 99 
0.23572 0.13537 2.66383 191 106 94 
0.42155 -0.47677 2.77096 207 140 130 
-0.0257846 -0.551779 2.97387 190 167 174 
-0.00841204 0.106158 2.54923 223 179 165 
-0.0709091 -0.579471 2.88371 161 114 118 
-0.0428694 -0.499859 3.04728 224 189 190 
-0.105116 -0.535039 2.9763 188 142 146 
-0.324367 -0.302373 2.62409 187 115 113 
0.361642 -0.247955 3.00013 222 197 195 
-0.139027 -0.0450239 2.37472 192 75 58 
-0.380019 -0.273864 2.81568 209 165 154 
-0.265708 -0.533383 2.89759 187 104 94 
0.475339 -0.268375 2.6365 216 127 120 
0.277982 -0.000739662 2.44589 183 108 100 
0.0188173 -0.660108 2.85202 201 184 197 
0.397934 -0.473066 2.72063 187 117 108 
-0.0860684 -0.623031 2.8641 221 184 188 
0.16255 0.106255 2.65186 203 172 166 
-0.285498 -0.466498 2.60008 204 137 134 
0.435186 -0.14498 2.75869 207 100 94 
-0.337859 0.016702 2.66242 219 101 81 
-0.0927125 -0.538797 2.97248 173 132 134 
-0.170606 -0.491844 2.96021 172 113 113 
-0.386217 -0.195288 2.77132 154 81 75 
-0.355927 -0.0643175 2.67283 216 144 132 
-0.35575 -0.276426 2.63503 196 109 101 
0.57322 0.123773 3.04993 176 156 156 
0.377459 -0.196637 2.98392 188 170 169 
0.27054 0.018136 2.47863 199 111 100 
0.427866 -0.122463 2.72249 195 134 130 
0.253415 0.156259 2.70626 215 179 173 
0.444438 -0.223985 2.78964 199 112 109 
-0.0154367 -0.0559802 2.41368 188 160 161 
0.451481 -0.141531 2.58166 196 109 103 
-0.0234623 -0.51609 3.06953 187 92 97 
-0.305676 -0.450406 2.84295 193 115 101 
0.0661326 0.11863 2.54178 223 165 156 
-0.295707 0.0231223 2.63174 171 97 82 
0.369965 -0.460826 2.8417 188 127 123 
-0.345368 -0.049035 2.67934 177 118 111 
-0.128105 -0.525416 2.97525 177 127 127 
-0.328439 -0.323987 2.63125 183 115 111 
-0.328263 -0.0341821 2.64658 212 154 142 
-0.35454 -0.294618 2.69415 177 105 99 
0.221064 0.161976 2.68259 165 130 123 
-0.183731 -0.512087 2.93537 177 111 108 
0.271657 0.0500668 2.46374 214 145 143 
-0.372307 -0.32145 2.76912 199 124 115 
-0.204196 -0.473347 2.67754 208 85 78 
0.394378 -0.262166 2.89062 203 150 145 
-0.31301 -0.367362 2.53944 188 113 111 
-0.356883 -0.246028 2.6775 207 131 123 
0.161976 -0.456627 3.10119 217 147 149 
-0.360582 -0.199335 2.78819 188 110 99 
-0.217109 -0.456639 2.98474 209 164 156 
-0.161854 -0.219211 3.07292 186 97 86 
0.382391 -0.0483707 2.50182 184 137 134 
0.473314 -0.259099 2.64724 207 121 113 
-0.131793 -0.504247 2.98551 206 156 156 
0.119353 0.156243 2.64505 166 125 113 
-0.365216 -0.30214 2.76711 180 104 95 
-0.333705 -0.406131 2.87334 195 124 114 
0.005251 -0.630546 2.87459 207 187 198 
-0.342991 -0.244413 2.65843 210 131 126 
-0.362371 -0.0864141 2.68269 163 106 92 
-0.335131 -0.315778 2.61054 201 135 130 
0.211151 0.150231 2.67085 207 164 155 
-0.353183 -0.244372 2.67293 190 118 111 
0.416824 -0.0990228 2.91702 196 142 141 
0.195224 0.143243 2.66684 167 131 124 
-0.270597 -0.573386 2.65667 188 98 88 
-0.332385 -0.316649 2.61256 184 116 111 
-0.325196 -0.228547 2.54757 200 149 143 
-0.35102 -0.243727 2.78685 204 124 111 
-0.338955 -0.246396 2.72863 196 106 96 
-0.337932 -0.156947 2.65651 202 129 121 
-0.359193 -0.275546 2.71247 221 126 115 
-0.0647629 -0.518319 3.03709 221 182 185 
-0.344156 -0.199104 2.67185 212 134 125 
-0.367546 -0.263001 2.75719 208 127 112 
-0.36573 -0.270539 2.75359 186 103 89 
0.302188 -0.525433 2.82478 190 126 125 
-0.313559 -0.326844 2.53755 178 134 133 
-0.272286 -0.233414 2.50175 196 161 153 
-0.284037 -0.260957 2.5019 196 157 155 
-0.336808 -0.296642 2.63657 208 134 125 
-0.341446 -0.278484 2.62402 186 113 107 
0.488768 -0.230573 2.64372 190 105 97 
0.456134 -0.220462 2.76388 203 110 104 
0.469172 -0.356117 2.70982 201 110 103 
-0.333349 -0.202482 2.78615 197 112 99 
-0.33849 -0.0243847 2.65408 171 103 86 
0.340706 0.0406892 2.78275 188 153 151 
0.0941307 0.0484174 2.49 196 132 129 
-0.326293 -0.359388 2.60886 191 107 101 
-0.295412 -0.308707 2.47419 191 153 145 
-0.328565 -0.304421 2.58943 188 133 128 
-0.35326 -0.301018 2.69681 193 124 117 
0.415794 -0.263596 2.80048 200 125 120 
0.349233 0.0846525 2.79218 218 195 195 
0.445191 -0.116993 2.67851 195 103 95 
0.365329 -0.475507 2.82451 203 145 140 
0.121409 0.196293 2.64147 207 173 160 
-0.295315 -0.211259 2.51466 204 155 150 
-0.377728 -0.319944 2.73995 202 118 108 
-0.126438 -0.522609 3.01168 202 152 152 
0.426409 -0.172189 2.73222 196 104 99 
-0.181811 -0.230557 2.31216 189 137 128 
-0.307236 -0.291686 2.5289 188 138 138 
-0.276508 0.0357372 2.61702 213 153 140 
-0.326554 -0.239833 2.74876 195 111 102 
-0.352596 -0.216471 2.68915 205 123 112 
-0.272585 0.0664591 2.63149 199 114 101 
-0.343786 -0.329735 2.879 186 139 133 
0.342048 -0.499334 2.83565 206 156 152 
0.397037 -0.184513 2.97244 201 160 155 
-0.280676 -0.473518 2.57448 198 95 91 
0.420367 -0.200552 2.76889 199 96 87 
-0.319035 -0.32552 2.5608 199 130 125 
0.386205 -0.0723397 2.48958 182 167 165 
-0.264904 0.0708784 2.63046 183 110 97 
-0.125248 -0.397324 3.00787 185 118 112 
-0.313456 -0.250173 2.57568 199 145 139 
-0.324476 -0.278608 2.56771 199 142 137 
0.203575 0.00209647 2.40941 183 126 126 
0.248399 0.016743 2.44047 187 134 132 
-0.345286 -0.207546 2.69063 195 116 108 
-0.339768 -0.299361 2.64178 191 110 104 
0.0976387 0.198991 2.62838 177 120 110 
0.354064 -0.0750958 2.50771 191 116 111 
-0.175902 -0.498588 2.95793 196 139 138 
-0.354001 -0.203574 2.61388 202 130 119 
-0.320662 -0.164735 2.57574 198 135 129 
-0.321499 -0.216504 2.56806 183 127 124 
0.309847 -0.302545 2.85593 192 122 114 
-0.360316 -0.220429 2.75336 202 120 105 
-0.352647 -0.0889631 2.71049 193 129 119 
-0.329402 -0.255815 2.68522 213 100 89 
0.407776 -0.215805 2.8433 209 135 128 
-0.351352 -0.211601 2.67689 188 110 99 
0.474305 -0.306063 2.72946 201 119 113 
-0.326333 -0.253545 2.5921 189 128 124 
-0.333569 -0.0490327 2.72658 200 135 122 
-0.343145 -0.292106 2.71451 190 128 121 
0.354651 -0.347622 2.78579 210 111 102 
0.426202 -0.36168 2.7769 207 125 117 
0.279179 0.116411 2.73002 183 167 161 
0.205305 0.122907 2.6817 184 159 154 
-0.237941 -0.494728 2.64219 194 108 99 
0.301018 -0.426742 2.93686 192 124 122 
0.40179 -0.186458 2.88498 191 122 115 
-0.193623 -0.475017 2.70495 207 94 85 
0.160863 0.0835668 2.52396 207 92 77 
-0.324862 -0.354329 2.59375 191 106 100 
0.411349 -0.280988 2.9247 204 138 130 
-0.343938 -0.193746 2.63684 196 124 115 
-0.334768 -0.318395 2.71667 208 115 105 
-0.0976725 -0.516154 2.98347 185 108 96 
0.394236 -0.0191344 2.83051 208 129 123 
0.467417 -0.279277 2.70813 198 112 102 
0.439955 -0.162108 2.74614 198 109 106 
0.380451 -0.3251 2.92293 207 132 126 
0.283257 -0.452039 2.91533 205 140 138 
-0.333521 -0.174907 2.65314 203 131 122 
-0.30791 -0.014596 2.62721 189 120 104 
-0.292096 -0.390277 2.52288 190 106 96 
0.447786 -0.125816 2.74324 204 123 116 
-0.281285 -0.49382 2.87303 192 96 80 
-0.0470002 -0.527881 3.06249 198 106 103 
0.201103 -0.0159723 2.67933 186 169 163 
0.338196 -8.75529e-06 2.5722 191 102 91 
0.158762 0.119113 2.63001 189 127 118 
0.318714 -0.532741 2.8021 189 130 125 
-0.321811 -0.312021 2.54154 188 140 136 
0.361823 -0.291654 2.88387 199 127 119 
0.351675 -0.373003 2.93077 198 120 111 
0.386843 -0.179694 2.80636 209 109 98 
0.344228 -0.309606 2.98834 196 126 120 
0.409359 -0.147094 2.82766 215 107 95 
0.185846 0.0727894 2.49324 198 121 115 
-0.127373 -0.665884 2.77551 200 129 131 
0.474893 -0.24179 2.6324 212 127 118 
0.425149 -0.244397 2.91442 201 119 113 
0.406318 -0.0814962 2.64147 196 100 90 
-0.325834 -0.37703 2.49592 195 153 151 
-0.235202 -0.550186 2.65865 201 88 78 
-0.218435 -0.598951 2.67755 211 96 84 
-0.310878 0.0292003 2.65987 195 85 67 
0.401461 -0.408767 2.7842 193 136 129 
0.362149 -0.528041 2.75026 190 139 140 
-0.3241 -0.259333 2.54124 189 140 135 
0.399276 -0.399061 2.76102 197 126 120 
0.432744 -0.296613 2.72214 199 111 104 
-0.205658 -0.573943 2.78017 189 103 99 
0.381764 -0.0037037 2.77824 211 104 93 
0.445427 -0.15933 2.57665 215 97 86 
-0.148526 -0.158723 2.98921 195 100 89 
-0.418476 -0.438886 2.66247 212 91 70 
-0.238991 0.101929 2.607 186 83 62 
0.488543 -0.199097 2.70016 204 108 103 
-0.0540033 -0.505527 3.09194 193 138 139 
0.390136 -0.265604 2.82714 212 111 102 
-0.000851882 -0.63557 2.41283 199 104 94 
0.39699 -0.237414 2.91224 203 133 127 
0.535941 0.287028 2.8243 216 104 90 
-0.190557 -0.0838637 2.57938 180 168 172 
-0.293906 -0.224041 2.5853 167 140 138 
-0.262674 -0.144357 2.46793 173 157 157 
-0.249042 -0.0745309 2.5968 169 140 133 
0.0700443 -0.467568 3.05574 158 151 144 
-0.220653 -0.0637065 2.47289 171 152 155 
0.0970951 0.00421687 2.35581 177 192 189 
0.310764 -0.514635 2.85275 184 168 159 
0.476097 -0.121206 2.58408 196 156 147 
-0.295354 -0.429218 2.69529 184 163 149 
-0.248172 -0.02012 2.54408 176 145 139 
-0.136056 0.0226507 2.47212 163 118 108 
-0.244791 -0.113419 2.47061 196 185 187 
-0.320508 -0.131482 2.6051 196 163 160 
-0.403774 -0.229314 2.69713 148 105 86 
-0.171716 -0.0446786 2.46155 153 138 133 
-0.304082 -0.385698 2.6868 144 116 106 
-0.311418 -0.212615 2.51727 173 112 108 
0.27273 -0.636981 2.87201 201 161 154 
-0.242865 0.0155401 2.58107 187 139 123 
-0.262149 -0.130628 2.48167 150 109 104 
-0.292908 -0.260171 2.4736 168 122 123 
-0.203681 -0.0257658 2.51004 193 166 157 
-0.238863 0.0800043 2.59665 155 127 110 
-0.336167 -0.206532 2.67025 202 162 151 
0.580095 -0.218226 2.75508 199 167 157 
0.345683 -0.573313 2.85907 174 119 116 
-0.278795 -0.028747 2.56661 162 107 94 
-0.302901 -0.478835 2.66967 190 169 154 
-0.320127 -0.0160697 2.65487 193 193 182 
0.42527 -0.227451 2.76826 153 117 116 
-0.066284 0.0583855 2.4906 181 163 156 
-0.334909 -0.232462 2.57944 174 105 95 
0.412295 -0.110994 2.78545 189 144 131 
-0.287718 -0.0231599 2.58822 177 108 90 
-0.238485 0.0594102 2.65111 166 114 92 
0.402858 -0.217203 2.69454 180 125 121 
0.342836 0.117409 2.79523 173 149 138 
-0.336457 -0.148644 2.65781 165 104 90 
0.282435 -0.567346 2.86629 180 134 136 
-0.209137 0.0254224 2.58045 170 116 106 
-0.231397 -0.23871 2.50743 157 111 113 
-0.128618 0.0984171 2.69125 191 132 110 
-0.231945 -0.092945 2.50431 188 170 165 
-0.332998 -0.217458 2.55973 168 118 111 
-0.337282 -0.289936 2.65387 191 149 140 
0.265144 -0.514476 2.8617 181 129 125 
-0.39707 -0.351799 2.7928 195 161 134 
-0.321194 -0.426308 2.72628 157 125 107 
-0.31495 -0.0511018 2.56908 170 103 87 
-0.224264 0.0260476 2.56695 160 110 99 
-0.0574988 -0.00563262 2.38208 181 176 173 
-0.394025 -0.283953 2.60874 167 116 96 
-0.244284 -4.51681e-05 2.55683 182 135 121 
-0.335524 -0.149929 2.61806 147 107 99 
-0.18406 0.0407981 2.57809 188 152 136 
-0.329845 -0.144831 2.60414 173 139 131 
-0.282917 -0.471394 2.72739 190 166 150 
-0.340964 -0.177562 2.571 172 124 117 
0.90903 -0.317218 3.00649 190 94 69 
0.438314 -0.121292 2.553 174 127 117 
-0.313533 -0.228508 2.55129 164 139 139 
-0.303963 -0.078175 2.56228 159 123 118 
0.307298 -0.470006 2.7993 182 125 123 
0.356471 -0.250486 2.80811 186 128 120 
-0.319121 -0.41151 2.74468 174 145 127 
-0.222741 0.0370104 2.52376 179 120 102 
-0.298869 -0.276767 2.46726 163 118 120 
-0.204416 0.0438497 2.56286 168 110 93 
0.42695 -0.106957 2.78699 176 121 108 
-0.297848 -0.290687 2.46567 160 115 110 
-0.260719 -0.177217 2.82096 149 117 109 
1.38547 -0.168771 3.27498 185 98 81 
0.445562 -0.292035 2.65776 169 117 112 
-0.342712 -0.336149 2.62339 186 148 142 
-0.148194 0.0521479 2.50941 172 134 121 
-0.337231 -0.247283 2.54409 180 140 134 
0.236228 -0.4271 3.0342 180 144 134 
0.411213 -0.174606 2.89273 172 140 136 
1.29724 -0.199791 3.27477 183 94 74 
0.335074 -0.354729 2.96536 189 134 135 
-0.106788 0.073433 2.50621 174 138 131 
0.901332 -0.475422 3.2544 185 98 80 
0.12991 0.0146988 2.39669 175 181 174 
0.404013 -0.179477 2.87076 185 153 146 
0.414535 -0.270252 2.90892 175 112 103 
0.176419 -0.553665 2.78084 182 131 129 
0.29644 -0.560637 2.85257 176 129 124 
-0.269323 -0.0575969 2.54729 180 125 114 
-0.17157 0.0763385 2.55771 175 120 101 
0.306527 0.0316359 2.59327 164 136 120 
-0.331497 -0.226077 2.59324 173 103 92 
0.395504 -0.197649 2.92861 181 146 136 
-0.0983717 0.0714588 2.51922 178 143 134 
0.420587 -0.436552 2.78188 171 138 141 
-0.294976 -0.104215 2.55456 168 128 123 
0.296131 -0.499493 2.86445 182 127 122 
-0.340508 -0.287997 2.77208 180 126 108 
0.239047 -0.508343 2.92688 180 123 120 
-0.334896 -0.414085 2.76009 177 136 116 
0.462082 -0.273147 2.69606 172 118 110 
-0.294588 -0.246269 2.50226 169 117 113 
-0.219528 -0.0314117 2.50324 160 128 129 
-0.000472511 0.0863148 2.49295 176 153 143 
-0.317824 -0.117396 2.56272 162 118 109 
0.407141 -0.28811 2.61467 163 144 139 
0.0524753 0.0715316 2.45361 174 161 148 
0.292217 -0.46867 2.9502 183 124 119 
0.372234 -0.256841 2.99533 171 140 139 
0.220211 -0.400495 3.04055 177 197 187 
0.27765 -0.467006 2.9467 182 124 117 
0.204261 0.0744786 2.43734 211 94 71 
-0.231821 -0.233155 2.51373 164 108 108 
-0.121788 -0.441675 2.11034 179 121 114 
-0.294081 -0.210418 2.50003 172 113 111 
-0.188342 -0.577629 2.78151 184 154 137 
0.446013 -0.27376 2.7998 178 133 129 
0.372249 -0.190848 2.7614 183 137 132 
-0.242213 0.0392701 2.64015 172 118 98 
-0.17304 -0.100901 3.19896 175 117 99 
0.399277 -0.381494 2.64873 178 138 137 
0.183047 0.148967 2.39239 205 83 54 
-0.111548 -0.111574 2.36518 198 148 162 
0.12537 -0.625691 2.87378 202 160 173 
0.0920128 -0.519598 3.00124 219 166 176 
0.161742 -0.475976 3.02817 202 163 178 
0.138708 -0.471991 3.09744 160 128 129 
0.0354943 -0.611594 2.9005 192 141 149 
0.146869 -0.495995 3.07802 175 126 128 
0.228977 -0.556429 2.91535 155 138 158 
0.170341 -0.597907 2.91064 188 148 161 
0.387059 -0.0337178 2.67235 194 141 126 
-0.250322 -0.230902 2.45932 191 157 154 
0.240849 -0.41546 3.08947 216 183 178 
0.404004 -0.384475 2.86562 213 141 134 
-0.311792 -0.4124 2.54658 190 147 130 
0.306516 -0.477603 2.9348 216 171 174 
0.206511 -0.443179 3.08043 203 164 168 
-0.141442 -0.597659 2.87517 210 100 84 
-0.151214 -0.666943 2.71234 209 139 134 
0.0199595 -0.541835 3.0429 201 142 144 
-0.144512 -0.0460901 2.39928 190 143 154 
-0.0801244 0.0419451 2.47807 194 132 136 
0.364898 -0.045157 2.70332 199 119 104 
-0.185922 -0.114273 2.39956 217 186 189 
0.289902 -0.460259 2.97501 204 156 160 
0.200482 -0.435301 3.07861 219 175 180 
0.265734 -0.400022 3.06562 195 152 155 
-0.0489361 -0.521223 3.06742 187 97 81 
0.0486797 -0.608001 2.81935 203 90 89 
-0.155796 -0.508641 3.01111 197 137 125 
-0.177028 -0.136679 2.39363 189 161 166 
-0.117844 -0.509881 3.02911 192 130 117 
-0.122467 -0.600748 2.74135 209 94 82 
0.0455503 -0.528297 3.02971 173 107 112 
-0.136334 -0.651662 2.73449 206 106 99 
0.105182 -0.679761 2.82989 197 115 120 
-0.197034 -0.164968 2.39288 182 152 153 
-0.115346 -0.567447 2.93511 202 85 73 
0.283108 -0.358537 3.06301 223 175 175 
-0.136286 -0.633432 2.80018 194 132 120 
-0.14815 -0.506873 3.02196 177 112 105 
-0.157314 -0.623728 2.78698 214 149 135 
0.333641 -0.521448 2.87528 204 165 165 
-0.117888 -0.0374705 2.46729 216 171 186 
0.350954 -0.505252 2.84858 190 159 157 
-0.0625953 -0.516508 3.06098 205 149 147 
0.332527 -0.328396 3.03689 207 150 144 
-0.198683 -0.625268 2.71761 200 151 138 
-0.164609 -0.561216 2.90484 207 89 73 
-0.22904 -0.470288 2.98328 191 139 127 
-0.300669 -0.388963 2.52534 199 168 153 
-0.16508 -0.432688 2.97693 194 117 105 
-0.133253 -0.635612 2.75209 207 102 91 
0.216222 -0.0220466 2.44742 186 106 96 
0.270989 -0.404165 3.06119 185 144 144 
-0.185882 0.131243 2.61729 182 138 128 
-0.234788 -0.538333 2.78183 191 121 110 
-0.18177 -0.0683736 2.52777 192 169 174 
0.353248 0.0341787 2.79728 194 138 127 
-0.137118 -0.502964 3.04039 181 129 123 
-0.126276 -0.561624 2.99176 192 110 99 
0.0563837 -0.497068 3.07494 177 145 143 
-0.223339 -0.0111905 2.52739 198 155 151 
0.4406 -0.391744 2.7205 182 138 126 
-0.0760445 -0.486721 3.04224 180 97 85 
-0.177044 -0.114569 2.40779 213 193 203 
-0.172235 -0.522835 3.00078 178 111 103 
-0.193025 -0.0752165 2.49128 205 161 172 
-0.252889 -0.154269 2.46413 190 159 155 
0.413089 -0.246703 2.55293 198 110 100 
-0.28562 0.60538 2.53338 211 178 175 
-0.214009 -0.587959 2.77712 200 135 124 
-0.0394121 -0.0107325 2.35933 206 176 193 
-0.0025675 -0.0871844 2.37458 207 192 212 
0.0128427 -0.474217 3.09581 216 89 73 
-0.216251 -0.573771 2.71407 203 162 153 
-0.264982 -0.474905 2.87784 188 110 96 
-0.120645 -0.661555 2.834 212 92 78 
-0.210707 -0.0194078 2.51266 188 153 159 
0.422875 0.0816839 2.6907 197 108 96 
-0.254918 -0.531312 2.7435 186 128 119 
-0.016494 0.0767454 2.46994 192 127 133 
-0.0219767 -0.726786 2.35376 189 119 117 
-0.195059 -0.111107 2.93834 198 101 89 
-0.22635 0.00313973 2.52386 191 148 146 
0.0184037 -0.521854 3.05209 212 153 155 
0.382259 -0.0217484 2.76808 197 118 106 
-0.185217 -0.503055 2.97558 198 115 102 
0.400246 -0.0630722 2.74736 192 116 106 
0.15131 0.170064 2.66786 191 107 90 
0.0201047 0.00181054 2.38057 193 155 169 
0.00528881 0.0608248 2.43479 197 124 127 
-0.0362027 -0.722676 2.76441 196 93 85 
-0.138885 -0.198032 2.38224 195 142 159 
0.405954 -0.0792434 2.51137 185 123 108 
-0.210043 -0.55088 2.80041 195 121 111 
0.405244 -0.128535 2.72656 189 113 100 
0.0550433 -0.682467 2.81103 191 96 93 
0.411629 -0.0730678 2.50519 209 89 71 
-0.0398062 0.0964447 2.49703 194 123 124 
-0.177985 -0.0567232 2.46718 200 140 148 
-0.0135796 0.154998 2.55908 190 143 136 
0.0589433 0.0897976 2.39251 186 136 138 
0.175961 0.35529 2.60716 220 80 58 
-0.0341473 -0.540845 3.03065 198 105 100 
0.0228414 -0.856336 2.55571 195 120 109 
-0.323636 -0.327347 2.86913 179 158 131 
0.358095 0.00997525 2.75619 192 170 165 
0.402162 -0.0131938 2.83178 195 151 152 
0.365727 -0.0235827 2.602 204 173 169 
0.214229 0.00832687 2.36696 181 102 82 
0.320281 -0.31857 3.0239 146 105 99 
-0.300949 0.0422315 2.62834 222 129 113 
0.345924 0.0143621 2.62531 174 129 114 
-0.31486 -0.320706 2.64016 175 148 145 
-0.314816 -0.335178 2.66337 208 194 193 
0.0648414 -0.680771 3.04061 183 133 112 
0.322828 -0.509311 2.83804 161 117 109 
-0.27451 0.0676799 2.62665 164 84 58 
0.392399 -0.0435473 2.59594 194 171 156 
0.17261 0.189945 2.65293 159 95 74 
0.278134 0.147667 2.72336 189 137 117 
0.297582 0.0916958 2.62843 175 118 100 
0.217158 0.0582176 2.47491 168 104 87 
-0.130068 0.141589 2.5835 185 149 139 
0.304838 0.0368094 2.58797 182 138 124 
0.0724153 0.0434438 2.41264 178 133 120 
0.243462 0.13159 2.64694 161 99 91 
-0.25157 -0.489794 2.7039 180 134 120 
-0.17884 0.113884 2.58465 200 145 135 
0.23744 0.0213125 2.48785 173 111 96 
-0.261174 -0.497106 2.61261 177 187 176 
-0.238255 0.0791701 2.59015 183 109 88 
-0.194477 -0.496887 2.88319 191 123 102 
-0.32741 -0.461575 3.019 185 133 121 
0.0399387 -0.504796 3.07313 185 128 124 
0.27981 0.00313658 2.46034 170 118 105 
-0.352345 -0.248113 2.79271 192 147 137 
-0.342646 -0.297386 2.82823 188 139 130 
-0.341074 -0.248089 2.67539 185 155 144 
0.107975 -0.518015 3.03818 187 133 116 
0.0506636 0.193172 2.61731 174 115 92 
-0.210552 -0.502126 2.88116 188 111 88 
0.236609 0.00906912 2.43656 182 108 90 
0.106208 -0.489124 3.07197 183 130 124 
0.22341 -0.602179 2.89636 185 121 107 
0.0300678 0.178048 2.58721 167 100 79 
-0.355168 -0.0467915 2.66196 161 85 65 
0.330225 0.0782853 2.73274 178 142 130 
0.051325 0.196284 2.60744 165 105 82 
0.258211 0.0805751 2.58491 174 107 88 
0.0504485 -0.599573 2.82878 185 103 83 
0.254421 0.038891 2.65423 177 128 114 
-0.171095 -0.592776 2.76453 201 128 122 
0.321583 0.0860608 2.71292 184 141 128 
-0.170247 -0.485172 2.97678 197 126 120 
0.0571824 0.196344 2.60737 158 97 77 
-0.200204 -0.533777 2.78563 188 117 94 
0.167351 0.131242 2.56927 177 107 99 
0.203181 0.0301607 2.45955 165 100 86 
-0.129351 -0.64287 2.74949 181 105 84 
-0.27382 -0.4814 2.63477 186 137 126 
-0.308957 -0.410689 2.93841 175 137 114 
-0.24749 -0.480397 2.80399 187 116 95 
-0.234073 -0.474007 2.88741 183 114 92 
0.398088 -0.057734 2.51167 200 187 181 
0.248757 -0.441033 2.94222 185 131 119 
-0.209682 0.00705912 2.51263 183 145 133 
-0.192698 -0.528616 2.88549 187 107 84 
0.158839 -0.655994 2.82562 184 105 96 
-0.0344315 0.176518 2.58421 170 120 99 
-0.169609 -0.723506 3.42148 182 99 80 
0.111978 0.106113 2.519 174 107 86 
-0.144527 -0.499927 3.05354 171 130 115 
0.289624 0.0489652 2.53143 173 132 116 
0.444951 -0.314777 2.07021 181 114 95 
0.216026 0.0115315 2.44915 186 104 97 
0.382244 -0.0688499 2.49577 177 178 164 
0.424722 -0.108469 2.52736 208 200 183 
0.348477 -0.556937 2.83761 177 155 135 
0.438 -0.130186 2.58596 220 200 195 
0.422683 -0.0890662 2.57156 216 182 170 
-0.251017 -0.493182 2.69473 206 188 172 
0.457365 -0.158143 2.57982 169 139 134 
0.393865 -0.041242 2.53889 182 135 121 
0.447708 -0.139502 2.65292 161 130 123 
0.44481 -0.144356 2.74068 191 162 157 
-0.337726 -0.283197 2.82397 183 141 115 
-0.281381 -0.368043 2.90383 193 104 81 
0.391995 -0.0590843 2.49227 176 147 132 
-0.309481 -0.279339 2.60003 186 168 163 
-0.338982 -0.417506 2.81806 186 133 114 
0.160627 0.164833 2.60986 174 90 64 
-0.360849 -0.245188 2.8192 188 140 111 
0.392155 -0.108752 2.5276 220 105 69 
0.391601 -0.0298642 2.75556 213 188 173 
0.297072 0.096102 2.71655 176 114 96 
0.310913 -0.0141563 2.44856 182 148 129 
0.375552 -0.055971 2.50477 173 136 121 
0.322196 0.085355 2.75941 205 160 146 
0.0199762 -0.261661 2.19281 188 149 126 
-0.272718 -0.473238 2.6141 175 136 132 
0.414464 -0.0897975 2.75916 206 180 175 
0.355562 0.124685 2.57293 208 139 110 
0.431617 -0.112306 2.57094 166 123 112 
0.179557 0.188263 2.65885 153 81 70 
0.401648 -0.0888035 2.50864 158 121 106 
0.352563 -0.0136177 2.48207 173 109 89 
0.419801 -0.0796509 2.50626 167 143 123 
0.334951 -0.00456521 2.54155 218 181 164 
0.105421 0.198389 2.63763 144 84 76 
0.328047 0.072306 2.74787 186 135 118 
0.119821 0.193999 2.6396 181 145 126 
0.398861 0.0158555 2.84577 186 86 63 
0.0288377 0.0688396 2.46081 189 136 112 
0.42226 -0.319331 2.9002 192 174 163 
0.454417 -0.125578 2.59379 208 173 171 
-0.234147 -0.217954 2.40095 192 192 188 
0.0379015 0.0217618 2.38432 184 138 117 
0.386124 -0.0260259 2.67365 147 114 98 
0.340216 -0.0400619 2.49495 193 141 116 
0.250782 0.143499 2.69368 180 119 110 
0.12268 0.189394 2.63024 165 115 95 
0.107657 0.192123 2.65192 150 90 66 
0.384364 -0.102344 2.54056 170 110 88 
-0.169412 0.135332 2.58556 146 71 55 
-0.327639 -0.362183 2.78652 175 135 114 
-0.286662 0.0670163 2.62664 209 92 55 
-0.0489825 -0.0133583 2.35998 188 141 127 
0.240193 0.158925 2.68625 166 113 88 
-0.0459378 -0.477175 3.05699 187 149 131 
0.27904 0.125883 2.72169 170 124 108 
0.254516 -0.627328 2.84248 199 130 108 
0.328587 0.0452649 2.67589 179 119 99 
-0.0122697 -0.488405 3.09181 158 117 99 
0.047404 0.0398569 2.40889 200 143 124 
0.0394515 0.07473 2.43936 180 116 92 
-0.1808 -0.0873554 2.4875 170 106 78 
0.32937 0.102367 2.74848 201 148 129 
0.399031 -0.0853161 2.48026 174 113 93 
0.0763483 0.0496444 2.43505 177 114 92 
0.0354487 0.0432449 2.42213 172 117 95 
-0.150477 -0.461982 2.55172 186 130 113 
0.0381291 0.0646408 2.43051 199 141 117 
0.418869 -0.0848096 2.52164 177 155 137 
0.3736 -0.0778253 2.50415 195 171 153 
0.324308 0.0444901 2.64006 181 127 108 
-0.201849 -0.584909 2.69689 182 120 100 
0.352372 0.0787345 2.76607 188 149 135 
-0.1827 -0.540636 2.76394 196 116 92 
0.42424 -0.106562 2.54905 179 139 130 
0.00693703 -0.644412 2.77675 190 102 76 
0.0745766 0.0838233 2.46227 180 108 81 
