ply 
format ascii 1.0 
element vertex 1204
property float x 
property float y 
property float z 
property uchar red 
property uchar green 
property uchar blue 
end_header 
-1.32729 0.162465 7.29591 192 161 143 
-0.674748 0.010387 7.6603 212 179 183 
-0.975979 1.61242 5.95066 185 120 117 
-0.186396 -0.986913 6.768 200 183 175 
0.368386 0.876608 5.89158 180 142 140 
-0.956606 1.04077 6.05692 179 126 106 
0.614038 -0.0456069 6.2769 193 115 96 
-1.4084 0.509395 6.96819 193 120 96 
-1.12476 1.45147 5.36858 206 163 175 
0.305921 0.0020398 7.41907 201 146 154 
0.233445 -1.54042 6.43737 199 184 169 
0.988776 1.36511 6.34602 177 88 58 
-0.068726 1.40754 5.36012 184 136 143 
0.388059 0.0156238 6.61896 204 96 91 
0.342314 1.43264 4.08103 199 178 178 
0.562425 1.66956 6.02484 193 115 101 
0.0246062 0.0611067 5.51418 155 127 122 
0.159756 -0.482274 5.49487 174 123 119 
-0.226713 1.9259 5.9037 214 150 137 
0.2831 1.95294 5.92269 210 165 149 
-0.0553586 1.4315 4.75103 206 181 182 
1.0987 0.744511 6.67175 211 163 154 
0.988238 0.772645 7.02531 191 146 133 
0.406394 1.44971 5.42606 187 106 104 
-1.16142 -0.671337 7.04448 196 127 128 
0.766875 1.78083 4.76685 189 125 112 
0.40662 1.82325 5.90349 197 136 118 
-0.279066 2.023 5.93845 211 147 136 
0.983849 1.35145 4.19899 221 149 151 
-1.14269 -0.424991 6.89643 205 134 132 
0.232461 1.43558 4.75967 210 145 151 
0.356466 1.27604 5.10724 222 195 188 
0.862364 1.43189 6.46328 200 135 124 
0.0259572 -0.408009 5.83219 196 155 156 
-0.607407 -0.869916 7.11174 200 136 142 
0.892811 0.890675 5.33752 197 118 122 
-1.70596 -0.486424 6.78008 198 142 141 
-0.232215 1.95439 5.67001 202 115 102 
0.465732 1.18621 5.21834 192 128 129 
0.151007 1.60639 5.19914 207 130 128 
-0.384234 -0.409613 7.43187 190 138 136 
0.13832 1.77167 5.61066 205 118 109 
0.351583 1.52932 5.48119 206 108 108 
-0.868968 1.78206 5.93118 209 150 135 
0.926578 1.03693 5.53316 194 115 112 
0.437849 1.82507 5.75994 217 132 120 
-0.948027 -0.673555 7.06622 200 136 140 
-0.794229 -0.668489 6.85843 195 154 153 
-1.22624 1.85244 6.25726 212 110 78 
-0.400496 -2.07883 8.54375 224 114 98 
0.804958 -0.258995 6.21021 217 192 182 
0.905306 0.963986 5.50008 202 133 135 
0.770339 1.23462 5.99655 203 109 97 
-1.54404 1.33716 6.09495 210 154 142 
0.768144 0.178986 4.59783 209 156 155 
-0.661585 -0.568386 7.03386 207 142 141 
1.08125 0.502129 6.01949 215 187 177 
-0.137185 1.50997 4.72263 206 173 174 
0.867184 0.995279 5.24994 190 118 125 
0.631831 1.56233 5.7919 203 116 106 
0.761326 1.18779 5.40402 195 122 123 
0.264934 1.49267 5.23462 205 122 121 
0.13891 0.461794 4.12844 193 136 130 
0.471221 0.873977 6.39059 201 120 122 
-0.199487 1.38407 5.94934 205 134 136 
-0.866186 1.78331 5.75171 203 138 116 
0.937148 0.877485 5.57493 193 125 127 
0.812452 1.36836 4.78384 200 123 123 
-2.5484 0.953789 7.82533 200 158 137 
0.84606 0.29667 7.17669 210 167 157 
-1.43725 0.15119 7.58977 200 89 60 
-0.268733 -0.411255 7.25535 193 140 139 
0.173068 1.9571 6.51288 217 162 155 
1.03812 0.606619 6.16089 189 130 125 
2.0073 0.784921 2.81647 212 153 152 
-1.3138 -0.390983 7.12139 171 131 127 
-1.81084 0.269323 6.3044 204 161 155 
1.01494 0.4426 6.11377 203 177 168 
-1.757 0.64737 5.84844 197 154 150 
0.510434 -0.655583 6.21239 193 130 127 
-0.474466 -0.547899 6.93051 193 147 149 
-0.333754 1.90539 5.81842 197 128 114 
1.07524 0.985448 6.61403 180 134 122 
-1.77662 0.714578 6.31783 217 165 157 
-2.26629 1.16696 7.28156 195 150 134 
-1.51442 0.245033 5.72775 181 131 122 
-1.72945 0.0848846 7.72602 189 125 124 
-1.47475 0.295603 6.61533 172 112 107 
-0.0876976 0.259188 4.62756 168 116 113 
0.703847 0.989423 5.28033 181 113 115 
-1.72479 0.561984 5.99184 192 146 136 
-0.59236 -1.2981 8.59001 222 90 68 
-1.66134 0.622363 6.3354 202 137 129 
-1.60623 0.349941 6.82487 185 122 118 
-1.15719 -0.710922 7.05271 197 151 152 
-1.63407 0.313736 6.12473 183 139 132 
-1.57842 0.486785 5.8511 205 155 148 
-1.71153 0.680574 6.274 206 151 142 
-1.47649 -0.336821 6.64771 172 114 117 
0.172425 -0.612495 6.75592 223 184 181 
-1.4635 -0.119556 6.65949 180 115 116 
-1.71829 0.330084 6.93911 195 135 134 
-0.79389 -0.2664 6.22949 178 144 143 
-0.886096 -0.607882 6.59215 192 161 159 
-1.66454 0.20818 6.04444 197 147 142 
0.184046 -0.646889 6.62361 215 165 165 
-1.62517 0.139472 6.73896 177 122 119 
0.134029 0.705772 6.57587 178 114 115 
-1.67734 0.134478 6.38241 185 122 120 
-1.49437 0.137172 6.01305 181 127 121 
-1.80203 -0.227614 6.49697 176 128 129 
-1.14454 1.03493 5.22752 224 220 221 
1.13764 0.964192 6.62505 172 124 118 
-0.545524 -0.835139 6.65188 198 137 140 
1.24039 1.55316 5.07712 195 120 107 
0.996807 0.864932 6.26989 193 125 113 
-0.825288 0.802897 5.11452 197 146 136 
-1.45344 -0.311062 6.67344 187 155 155 
-1.58486 0.235106 7.11743 184 128 126 
-1.6389 0.245443 6.99264 184 120 117 
-1.56156 0.168353 6.33528 177 133 127 
-1.24979 -0.087199 5.74807 210 118 100 
-1.74731 0.480228 5.90435 204 165 161 
0.780597 0.025754 5.47215 192 139 140 
-1.51047 0.8833 6.55858 187 125 115 
-0.214094 1.40428 8.59555 196 144 127 
1.01781 0.328502 6.13625 208 190 185 
3.04652 0.522866 1.95389 190 144 143 
-1.85329 0.315248 6.24066 199 133 126 
1.09034 0.0592311 6.06635 218 187 183 
-1.75072 0.732797 6.51508 192 129 121 
-1.66896 0.582653 5.71832 196 156 151 
-0.000385161 -0.714303 6.47488 200 140 140 
-1.5504 -0.0928705 6.45514 186 145 145 
1.04598 0.94976 5.98314 188 116 105 
-1.77959 0.0702372 6.67817 192 130 127 
-0.772389 -0.302557 7.00939 210 161 160 
0.394651 1.69157 5.79326 200 148 133 
-1.86051 0.262981 6.1219 187 144 136 
-1.52371 -0.0543579 6.41099 175 136 132 
-1.09703 -0.191949 6.61805 186 127 127 
1.12231 0.523172 4.26159 213 170 166 
-0.442098 -0.0282656 5.21944 183 146 145 
0.503765 1.4005 4.68894 203 170 171 
-1.55889 0.894232 5.95142 204 148 140 
1.02256 1.3212 6.40032 193 151 139 
1.06882 1.17921 6.47658 184 130 117 
-0.700166 -0.302742 6.93595 190 157 158 
1.14657 0.516972 4.24323 211 156 151 
0.320911 1.62677 7.19275 191 163 156 
-1.60662 0.363983 6.34799 200 130 123 
1.23925 0.0443072 4.35637 194 146 145 
-1.68844 0.420247 6.5369 194 130 124 
0.463894 1.66992 6.17112 192 114 106 
0.0827558 1.29986 5.28433 199 172 173 
-1.71681 0.074409 6.64941 183 122 122 
-1.36744 0.268902 6.71792 195 122 119 
-1.62968 0.293159 6.15567 194 139 133 
0.0778812 -0.343714 7.26278 209 158 157 
0.511058 1.21668 5.32103 185 125 131 
-1.05292 0.295602 6.80188 207 126 120 
0.721297 0.0373468 4.11751 179 147 147 
-0.256998 1.96412 5.91326 196 148 133 
-0.692239 0.415892 6.17696 199 124 118 
0.331703 -0.646232 6.46784 210 201 194 
0.628274 1.00245 5.24403 207 99 90 
-1.76871 0.0810747 6.09296 194 120 110 
0.842645 1.11045 5.19536 189 125 125 
0.396345 1.65965 6.80758 194 120 106 
0.264566 1.59617 5.53853 201 124 118 
-1.60399 0.133531 7.08606 190 125 124 
2.91182 0.427533 2.58907 209 210 204 
-1.9101 0.434795 6.45748 197 138 131 
-1.44424 0.179649 5.74839 192 135 128 
-1.6135 0.275982 6.35759 188 125 123 
-1.08433 -0.754696 7.05311 208 144 148 
-1.62818 0.531389 6.22281 197 136 130 
0.465367 1.47415 5.66732 199 120 115 
0.956991 0.746759 6.1561 188 123 115 
1.62164 1.39344 4.97715 191 106 92 
-0.779956 1.81357 5.85878 204 159 146 
0.853548 1.47859 6.18731 194 110 91 
-1.75773 -0.204443 6.57771 176 142 141 
-0.896161 0.499274 6.36664 201 125 120 
0.55638 2.05451 6.04955 222 183 167 
-1.31133 -0.48308 6.99297 203 149 162 
-0.17513 2.15567 5.98224 200 163 150 
0.848814 1.01647 6.48483 200 106 89 
-1.94075 -1.35524 6.41889 211 133 139 
0.105097 0.961765 5.93196 212 151 136 
-0.588828 -0.706063 7.15632 191 133 123 
0.694625 -0.0752802 5.79833 202 130 113 
-1.57842 -0.49552 7.06369 218 170 175 
0.491074 1.1538 5.39989 192 123 122 
1.22294 1.30896 5.96509 210 158 139 
-1.69826 -1.02036 6.33573 200 153 168 
-0.228141 -0.214608 7.55068 207 194 190 
0.899712 0.207083 6.97193 173 120 107 
-1.35391 0.751995 5.40993 165 106 90 
0.568132 -0.0175107 7.20657 190 162 155 
0.981768 0.387381 7.0276 155 94 74 
-1.69538 0.788826 6.02798 172 96 73 
0.925446 0.415617 7.01634 180 150 139 
-1.47222 0.992653 5.83766 176 102 80 
-0.98563 -0.0450196 5.42711 166 83 59 
-0.931044 -0.170599 6.98743 182 115 94 
0.721247 0.151995 7.28109 174 125 117 
1.0454 1.06331 6.56237 174 103 74 
1.00562 1.0587 6.34908 169 91 64 
0.497732 -0.451303 6.64286 187 168 171 
0.0198965 -0.610088 5.90731 171 122 95 
-1.02613 -0.626909 6.16881 176 110 88 
0.843071 1.10258 6.31234 170 97 70 
1.03557 0.814322 6.25301 163 89 60 
0.741679 0.0975377 7.23495 189 137 130 
0.588313 0.111473 7.30617 200 145 131 
1.34689 0.41992 7.6397 214 174 162 
0.112237 -0.00171828 6.60889 185 116 111 
1.55666 -0.189158 6.61891 205 153 134 
0.3965 -0.0805032 7.11593 185 153 149 
0.329048 -0.038379 7.57685 195 175 170 
1.04344 0.142014 5.8773 214 185 166 
0.385859 -0.550207 7.06949 193 141 135 
0.605917 0.982833 5.24477 218 217 220 
1.04487 0.119987 5.91744 190 155 143 
0.805012 -0.272306 6.47004 198 135 124 
-1.50884 0.887691 6.85231 209 169 163 
0.0701894 -0.693109 6.62056 187 172 166 
0.918486 -0.0358046 6.28077 178 136 125 
-0.11724 1.30916 5.07426 197 149 139 
-1.82943 1.27037 6.03958 187 125 117 
1.02074 0.38422 6.13838 200 138 123 
1.02463 0.0614176 6.03554 196 142 127 
0.336427 2.0019 6.14168 191 130 116 
-0.113101 0.137095 6.58561 206 158 151 
0.962054 1.02456 6.51496 199 143 125 
0.82737 -0.101564 6.38476 188 130 121 
0.899582 -0.0744998 6.05561 180 143 132 
-1.35423 1.81762 5.56655 208 139 123 
-0.942684 1.64755 6.07332 207 103 81 
-1.17457 1.47866 5.95861 222 98 81 
1.11571 0.723997 6.89063 193 127 112 
-1.65482 0.883764 6.03143 192 117 109 
-1.62467 0.495488 5.90122 219 209 204 
-0.265453 -0.262085 7.50708 196 133 124 
0.0203437 0.28062 6.1605 187 144 134 
0.809875 -0.115677 6.58409 189 129 117 
-0.0123877 1.04689 6.81005 195 115 110 
-1.35406 -0.304395 6.49412 204 194 189 
-1.06315 0.657218 4.67567 200 167 159 
1.23644 0.527768 6.22799 201 136 126 
0.801815 -0.565062 7.1285 187 132 127 
-0.527584 1.86117 5.75182 202 126 111 
0.483119 1.36584 5.51332 216 162 161 
-1.15583 -0.00646004 7.69618 220 67 54 
0.814472 1.64872 6.08486 183 123 116 
1.07316 0.986434 4.64732 195 145 149 
1.01752 0.313563 5.98718 197 127 126 
0.955299 1.34694 6.37263 195 105 94 
2.34759 0.621307 4.47213 223 137 120 
-0.47489 1.3544 5.01346 215 195 190 
0.956048 1.44044 6.26264 196 133 122 
0.823215 1.49117 6.13315 222 120 105 
0.626144 1.60531 5.90803 213 151 138 
0.554746 1.74945 5.92372 216 140 133 
1.07709 0.43757 5.8752 199 119 115 
0.942641 0.825343 5.87888 207 125 118 
-1.90249 0.00792939 6.4018 207 113 109 
0.943072 0.559916 6.56652 200 115 107 
-1.85869 0.949056 6.15573 217 144 141 
-1.73029 1.28841 6.34521 208 144 122 
-1.60106 -0.176996 6.19784 194 118 99 
0.980354 0.170346 6.04616 193 165 149 
-0.532343 -0.678885 6.66942 195 139 127 
-1.23732 -0.00396774 7.34737 209 131 115 
0.078003 1.82713 7.42177 207 110 78 
0.383822 1.05282 6.5368 216 120 120 
1.09366 0.704192 6.19959 218 111 92 
-0.391616 -0.430617 7.2394 212 176 175 
-0.0852953 -0.041885 7.50208 201 139 156 
1.0607 0.473724 7.00712 180 152 141 
-0.538276 1.40884 5.17979 193 151 179 
0.766144 0.0369921 6.90522 182 104 80 
0.876652 0.0312329 6.38559 183 125 108 
-0.839744 1.21734 5.15578 149 117 127 
-1.22311 1.13572 5.31348 166 117 122 
1.05213 0.538471 6.96012 142 113 102 
-0.880629 0.430358 5.58506 189 108 102 
-1.00468 1.60561 5.98012 150 87 68 
-1.19976 1.5523 6.26788 167 94 73 
-0.984018 1.56662 5.73673 172 133 139 
-1.09096 1.90881 6.22376 177 123 102 
-0.970081 1.23288 5.32041 200 176 183 
-0.933127 1.39978 5.59974 171 120 125 
1.09228 0.0301193 6.16563 175 130 117 
-0.987753 1.28784 5.70229 190 174 171 
0.906498 -0.00142711 6.4119 179 112 89 
1.11639 0.522132 6.87986 150 119 106 
-0.991557 1.57478 5.93147 194 163 152 
1.47179 -0.953539 6.09326 178 107 89 
-1.18768 -0.506215 5.98179 187 122 95 
-1.50299 1.06139 6.09475 187 110 97 
-1.56475 0.524755 5.94999 189 118 93 
-0.987883 -0.0644892 6.40948 207 107 85 
-0.724081 -0.543086 6.92281 196 160 158 
0.883212 0.295074 7.22992 201 165 140 
1.20118 0.893329 6.7067 187 130 108 
-1.64172 -0.175486 6.18132 195 155 162 
-4.89179 -1.50314 3.56518 194 131 112 
0.97049 1.44872 6.45387 180 158 133 
1.04442 1.66124 6.52624 199 97 62 
1.03316 0.300697 6.46739 185 125 98 
0.969559 0.787334 5.73759 184 149 145 
1.27973 0.47659 6.99962 194 130 104 
-2.31082 0.358223 6.35968 196 152 136 
0.605874 1.21422 5.70132 200 171 170 
-1.77261 0.592146 6.89242 214 126 102 
1.09315 0.803835 5.76919 192 163 159 
-1.64948 1.16038 6.19394 197 103 79 
1.19785 0.117981 6.01855 190 123 95 
-1.42237 1.11556 5.5911 191 171 148 
0.769049 0.011475 6.45509 190 121 95 
1.09515 0.807918 5.75745 191 161 159 
1.11304 1.24171 6.69426 179 140 118 
0.432196 -0.0907419 7.26998 193 135 112 
-1.62788 -0.223255 6.5082 199 197 202 
-1.3998 1.30188 6.46969 211 99 69 
-1.76309 0.703844 5.62975 200 118 96 
-0.937873 1.34135 5.12415 193 116 90 
0.385457 -0.561992 6.37045 186 139 120 
0.577587 1.17589 5.69967 187 157 155 
-1.01028 1.14559 5.75822 190 126 107 
-0.959832 1.21674 5.02998 188 172 144 
-2.3035 0.140751 5.29304 196 111 92 
0.263188 2.29065 6.51363 189 159 145 
-1.67128 0.803123 5.35266 192 155 136 
0.884076 0.511951 7.04768 166 114 107 
-0.777876 -0.296209 7.27664 196 158 158 
1.04219 0.646728 5.38256 199 167 161 
0.00916752 -0.559716 6.4359 209 117 97 
0.955295 0.279354 6.98751 187 137 137 
1.04773 1.29809 6.39695 174 117 104 
0.980029 -0.0594562 6.69694 176 106 106 
1.12545 1.12702 6.3805 208 146 132 
0.754148 -0.205992 6.68489 187 129 136 
1.19514 -0.0702404 7.00366 181 107 98 
1.23557 -0.587942 6.90647 175 128 131 
1.03357 0.691655 6.68518 196 102 85 
0.701049 0.0684373 6.90669 199 131 133 
0.928614 0.444065 7.0976 215 185 192 
-1.68249 0.87955 5.92546 188 114 109 
1.10055 0.700813 5.97381 217 112 90 
-0.531133 0.566426 6.8317 206 185 206 
1.06803 0.308474 6.7465 197 88 79 
0.18247 1.5512 7.54096 191 125 119 
1.04553 1.17741 6.61908 200 161 153 
-1.2979 0.270717 6.91756 205 122 108 
0.156175 0.22615 6.65651 191 109 112 
1.13221 0.629005 6.64693 196 94 76 
-1.0128 2.15051 6.06453 197 129 126 
0.821741 -0.0863071 6.78729 194 96 93 
-0.312962 0.504109 5.78158 207 166 158 
0.659385 1.03009 5.24482 197 169 165 
0.657829 0.202998 7.30787 212 183 164 
0.312569 -0.230668 7.28762 207 140 131 
0.681579 0.169612 7.25253 216 177 160 
0.838299 0.375319 7.06837 208 159 151 
0.608004 1.35137 5.83562 211 146 137 
-1.0496 0.563851 6.37118 205 129 129 
0.97661 0.853088 6.54187 195 120 109 
-1.67243 0.212938 5.81871 192 91 75 
0.448894 0.93043 8.03986 209 107 96 
0.943558 -0.288916 6.40733 195 132 129 
-0.241389 -0.758782 6.5178 206 134 126 
-1.69411 -0.311849 5.8975 198 189 189 
0.461529 -0.111436 7.20961 191 139 125 
-1.82148 0.838144 6.37922 206 127 116 
0.012638 0.0712273 8.44153 211 182 186 
0.633049 -0.559575 6.56333 176 156 144 
-1.07426 1.41533 7.02115 224 101 84 
-1.62293 0.68531 6.25579 205 128 121 
-2.05762 0.499256 5.19674 204 126 119 
1.12011 1.27296 6.63804 201 161 148 
-1.66851 0.690681 5.91964 196 122 120 
-0.211597 -0.442111 7.23541 222 173 164 
-0.105758 -0.410188 6.66179 201 133 123 
0.228769 -0.192924 7.31975 191 130 127 
0.131604 -0.179926 7.21072 188 125 124 
1.77295 0.688818 7.83399 193 116 100 
0.0360793 -0.877124 6.94989 203 170 164 
-0.50229 -0.341547 5.62814 187 121 116 
-0.722869 1.83043 5.76256 205 124 113 
-0.45074 -0.480599 6.93944 193 131 120 
-1.44243 1.24545 6.50174 212 101 83 
0.666905 1.25147 5.34513 196 171 161 
0.376632 1.24666 5.27193 205 192 188 
0.88508 0.390042 5.54796 191 144 135 
0.914755 0.326082 6.98439 207 121 110 
0.859365 -0.0271019 6.21393 185 119 109 
-0.334441 1.55316 5.67711 195 128 126 
-0.370812 0.898009 4.59236 214 178 190 
-0.389637 1.17334 8.54933 207 111 92 
-1.45168 0.578695 6.84517 207 164 163 
0.0924215 -0.211178 5.85069 192 116 108 
0.0896412 -0.436866 6.89804 181 133 133 
-0.431035 0.416287 4.58061 215 211 210 
0.591032 0.0967113 7.22449 172 135 121 
0.244137 -0.474132 6.72578 207 174 168 
-0.649582 -0.548684 7.10846 200 171 169 
-0.502151 0.385856 5.4562 172 129 122 
-1.49706 -0.0197856 6.28598 206 172 167 
-1.379 0.260806 6.62836 208 155 144 
-0.055087 1.51235 5.02867 181 129 127 
-1.49544 0.0753919 6.62111 207 178 169 
-0.298672 -0.591369 6.87922 168 135 136 
-0.720904 0.708657 4.40584 183 149 141 
-0.463753 0.957931 4.24249 193 182 173 
-1.72971 1.04128 5.87711 217 89 59 
-0.754157 1.30912 4.94384 189 129 119 
-1.50918 0.164283 6.20811 199 161 154 
-1.44933 0.550246 6.8585 210 203 192 
0.163024 1.83749 5.75674 195 140 120 
0.275448 1.67227 5.62538 191 124 112 
-0.283734 1.69392 5.23865 191 131 126 
-0.194448 -0.166919 5.10084 200 119 101 
-1.29191 1.48114 5.8662 184 141 113 
0.504485 0.183285 4.42589 202 114 96 
-0.840929 1.30836 5.15857 180 136 135 
-0.0781354 1.48163 5.20189 185 132 131 
-1.66768 0.481842 5.68722 214 224 203 
-0.114829 1.60797 4.21821 177 127 127 
-1.7075 0.994629 5.88959 224 107 86 
0.989923 0.344253 7.07603 208 154 133 
0.739474 -0.0272962 7.12216 199 115 96 
0.485838 -0.325956 7.03889 220 132 120 
-0.503114 -0.520858 6.78569 215 151 146 
0.377747 1.2897 5.93926 205 141 128 
0.977676 0.0368887 6.19543 201 134 110 
-0.286203 1.11608 5.09437 207 154 159 
0.813236 -0.0305424 6.5162 223 105 92 
-0.607398 1.80958 5.46493 218 149 152 
0.984688 -1.27037 6.85632 199 135 125 
-0.543771 -1.33482 6.87961 218 144 122 
0.808775 -0.389563 6.38566 221 149 131 
0.986015 -0.717267 6.02236 201 128 109 
1.1159 0.363283 6.74467 204 139 112 
-0.582029 1.36769 5.3042 213 137 141 
0.995616 0.594774 6.93553 196 116 91 
-0.567955 1.79412 5.7124 206 161 167 
0.0327545 -0.393973 7.0336 211 122 116 
0.659625 -0.239375 7.04281 206 114 103 
0.499599 0.15261 6.805 223 110 92 
0.121981 -0.608507 6.94051 221 121 112 
0.627187 -0.180763 6.3697 222 113 96 
-1.02981 0.847322 5.73814 219 141 129 
0.890721 0.130841 6.48815 213 123 106 
0.745172 1.58877 5.66718 209 157 137 
-0.383059 1.39196 5.82274 213 134 122 
0.919096 -0.0884546 6.6194 217 105 80 
-0.795558 1.30446 5.17207 214 128 120 
-0.146549 1.34846 5.31522 220 158 160 
-1.0055 0.476277 5.71221 218 139 123 
0.963081 -0.647081 6.12878 214 135 112 
-1.29608 0.928535 6.05382 218 119 96 
-1.3039 -0.305605 6.62773 222 133 106 
-0.766838 1.45724 5.29314 217 128 123 
-0.986214 -0.440315 6.63855 210 162 146 
-0.151164 -0.125776 6.70475 185 167 168 
-1.40233 1.72909 5.85811 197 165 152 
0.708434 0.0388476 6.32755 198 156 138 
-1.59356 0.212834 6.34593 184 132 105 
-0.759627 -0.255183 7.13766 188 124 120 
0.977048 1.42573 6.29732 176 104 93 
-0.582889 -0.445187 7.02006 186 148 142 
-1.548 0.255833 6.32565 212 150 144 
1.02478 0.85727 5.71946 203 166 163 
-0.256811 1.91038 5.80033 216 153 138 
-0.897254 1.38382 5.23293 208 184 176 
-1.50207 -0.311322 6.42238 178 144 141 
1.12278 1.06283 6.43371 223 178 161 
-0.339 1.4263 5.33106 207 152 158 
1.03205 1.08752 6.2028 209 135 123 
-0.614289 -0.663997 6.64096 187 146 144 
-1.67004 0.0463908 6.1939 195 155 150 
0.348661 1.77742 5.81567 197 127 116 
-1.13501 0.20458 5.60318 199 143 142 
0.955709 1.322 6.26251 191 108 93 
-0.228229 1.89992 5.78101 194 128 112 
0.315545 1.72258 5.68351 202 118 106 
0.348845 1.72629 5.60579 184 111 100 
-0.156693 1.61543 5.50045 208 138 133 
0.423499 1.46454 5.44297 206 134 132 
-0.044986 -0.628487 6.77349 194 140 141 
0.0809255 -0.386212 7.07604 201 132 130 
-0.481334 1.90525 5.7981 212 125 108 
1.06618 1.35093 6.38827 200 115 104 
0.729243 1.44589 5.98776 201 119 102 
0.884106 1.19467 5.61998 192 113 105 
-0.0384941 0.549404 4.78754 194 139 135 
-1.4839 0.889985 5.88228 211 158 146 
1.0376 1.01654 6.24623 194 120 109 
0.539869 1.52906 5.74975 204 119 109 
0.501479 1.39053 5.3257 196 126 126 
-0.233484 1.36966 5.23724 203 142 142 
0.626375 1.11333 5.3384 196 132 135 
0.0023862 1.51384 5.46609 199 126 127 
-0.247856 -0.421663 7.88498 213 146 145 
-1.52224 0.720713 6.69358 214 143 132 
0.139792 1.61815 5.59273 211 118 112 
0.569825 0.133121 7.44079 195 155 135 
0.134362 0.253211 6.74508 200 142 116 
0.808479 1.11678 6.0753 200 150 136 
0.292843 0.00939839 7.55977 213 116 92 
0.991414 0.517189 6.43716 207 146 137 
1.09058 0.744498 6.66817 190 114 101 
1.02015 0.524294 6.52061 186 127 115 
-1.61968 0.595327 5.69133 190 107 92 
-1.21647 1.17419 7.39881 193 142 126 
-1.35809 0.701641 7.19918 202 166 165 
-1.38528 1.6478 6.11769 193 139 118 
1.59984 1.13337 7.14625 204 162 142 
0.853258 1.22433 6.3107 207 138 116 
1.03273 0.831699 6.35565 200 136 124 
-1.07453 0.485115 4.01005 204 148 142 
-1.18915 -0.268885 6.59174 208 210 209 
0.994003 0.674673 6.04768 203 133 117 
1.01854 0.385099 7.00513 194 122 106 
-0.445989 1.0392 5.19109 205 128 113 
-1.87076 0.109598 3.67644 197 129 121 
-0.843092 -0.356535 6.90876 208 155 144 
-1.35316 -0.21061 6.68767 221 203 209 
-0.595113 0.0874236 4.65513 221 107 80 
-0.822439 1.48225 5.49721 205 148 138 
0.908642 0.757275 5.93548 206 141 126 
-1.52928 1.42156 6.35936 198 120 111 
-1.35047 0.0982838 4.94033 195 141 137 
-1.45599 -0.658062 6.87972 177 143 158 
-1.39596 -0.974409 6.26045 178 153 170 
0.491074 0.783035 5.40682 205 179 174 
0.805441 1.80595 6.15891 170 99 85 
0.983311 1.16379 5.38158 171 126 120 
1.10651 0.726976 5.57662 222 172 144 
0.755357 1.73747 6.08406 161 93 86 
-0.631075 -0.525723 7.23087 195 140 132 
-0.28053 1.48972 5.2621 167 139 135 
0.750596 1.06051 5.98306 151 102 89 
0.51867 1.8611 5.95013 213 175 164 
0.883746 1.68086 6.21428 219 162 141 
-0.732495 -0.545982 7.20203 224 167 162 
-1.11018 -0.744691 6.54138 215 171 172 
-0.0575487 2.03951 5.42077 219 177 177 
-1.35195 -0.733328 6.87441 207 196 203 
0.0492065 2.04592 5.94131 163 98 94 
-0.362492 1.48042 5.33658 207 164 166 
0.291172 1.68855 5.34714 193 155 167 
-0.0661586 2.16937 5.9327 166 116 107 
-0.555716 -0.39245 7.24608 197 140 131 
0.385831 2.05752 6.01487 169 109 96 
0.418468 2.0092 6.05376 163 99 90 
0.933753 1.13981 6.12323 159 105 87 
-0.524852 -0.509236 7.21414 181 129 118 
-1.5099 -0.971166 5.77143 202 161 144 
0.83672 1.77828 6.12344 166 110 95 
-1.17188 -0.833787 6.57465 223 180 190 
0.867788 0.980379 6.05531 206 152 132 
0.362657 1.96222 5.94365 164 95 88 
-1.29552 -0.875902 6.54502 215 173 184 
-0.375528 1.80943 5.77588 213 177 169 
0.962888 1.17827 6.36259 192 123 97 
-1.32796 -0.60084 7.1929 214 116 107 
-0.941067 -0.798232 6.74786 189 152 147 
1.088 1.09472 6.65313 207 148 131 
-0.744143 1.45847 5.21119 177 125 109 
0.0291741 1.64154 5.39076 178 141 147 
0.945946 1.47072 6.27759 168 102 89 
-0.0722838 1.70504 5.37445 191 171 180 
0.83573 0.541921 5.71517 191 142 126 
1.02241 0.517184 6.29462 188 115 97 
0.917845 1.3822 6.1958 197 148 132 
-1.77458 0.992695 6.52004 179 129 111 
-0.622493 1.81561 5.74635 199 153 143 
-0.642468 -0.547147 7.17748 199 153 150 
0.796352 1.72726 6.17318 196 138 123 
-2.0898 -0.396193 6.56147 197 141 133 
0.96161 0.774887 5.56241 182 133 115 
-0.21309 1.63149 5.22687 205 169 171 
-2.08152 -0.471548 6.2298 184 109 100 
-0.806481 -0.438596 7.26425 204 146 141 
1.00294 0.879303 5.67269 162 132 118 
-1.64998 -0.499842 6.52079 205 147 162 
-0.791502 -0.615247 7.1564 190 130 123 
-0.793534 1.80111 5.63208 199 140 125 
-1.78804 -1.32075 6.17352 209 164 177 
-0.44468 1.78962 5.3607 180 142 130 
0.742734 0.358026 6.11524 192 117 96 
1.08959 1.07091 6.63935 186 110 89 
-0.722623 -0.689521 6.92429 188 134 129 
-0.0754241 -0.0666941 5.90943 192 144 121 
0.939339 0.626514 6.55371 199 123 109 
0.347706 -0.00124046 7.20282 190 142 128 
0.285934 0.876556 5.44701 188 135 137 
0.906799 0.316298 5.79394 186 120 101 
1.0651 1.23246 6.35045 177 122 105 
0.825911 0.62466 5.9289 188 109 91 
0.745146 0.214792 5.7407 187 125 101 
-5.19551 -4.82963 5.06449 179 171 178 
-1.98719 -0.286487 6.48301 192 128 119 
-1.56382 -1.08995 6.23617 211 169 185 
-1.94287 -0.656402 6.337 182 108 105 
0.240675 2.07594 5.99094 182 111 102 
-0.298612 -0.246345 7.19972 203 138 127 
-0.922671 -0.782277 6.87136 214 173 170 
-2.02998 -0.454257 6.22898 200 120 110 
-1.2357 -0.902871 6.33089 214 192 205 
0.615853 0.0961331 5.99634 192 123 102 
-2.01825 -0.507932 6.23561 192 115 113 
-2.12915 -0.254546 5.3346 190 158 148 
-0.827453 -0.67477 6.92179 195 157 155 
-0.884754 1.23213 5.21563 191 136 123 
0.196417 -0.648837 6.25605 182 138 111 
-2.05842 0.647005 6.45499 197 142 123 
-0.367389 -0.476645 7.14652 195 151 138 
-2.31916 -0.383253 6.05773 194 116 98 
0.785574 0.621801 6.5661 192 118 98 
1.13795 0.65547 6.07535 186 118 92 
-1.14029 0.875251 7.10954 200 111 100 
-0.264889 2.52418 6.10982 178 141 127 
0.438081 -0.198048 6.27982 191 134 113 
-2.05208 -0.115731 6.14969 188 110 92 
-2.23463 -0.441231 6.33643 195 143 134 
-2.37396 -1.34812 6.02793 184 133 137 
-0.829094 -0.938282 6.92013 194 125 110 
-1.54483 -0.274103 6.23325 204 124 115 
-2.15579 -0.148692 6.64523 209 123 115 
0.842003 0.233776 7.18117 193 149 135 
-1.06198 0.630692 6.42468 209 134 123 
0.773295 1.51355 6.09999 214 149 134 
-1.76913 1.03767 6.91009 181 125 102 
0.888726 0.00528358 6.57847 223 176 177 
-1.15454 -0.481221 6.46804 185 119 98 
-1.85943 0.780971 5.96537 212 147 144 
1.03432 1.12971 6.07335 195 97 62 
0.269009 0.981576 6.16954 194 112 88 
-1.03052 -0.364846 6.6026 206 122 116 
-1.4908 1.41049 5.89242 192 145 142 
0.995302 0.648461 6.55205 184 97 78 
0.962634 1.34473 6.13769 192 103 78 
0.931011 0.686591 6.13888 221 95 81 
0.641804 0.650223 7.09 187 111 90 
0.378348 -0.531604 6.49083 208 187 173 
-1.7234 0.0192785 6.34156 186 122 99 
-1.21232 -0.374038 6.33341 181 114 93 
0.163983 -0.645009 5.95958 214 132 128 
-0.208359 -0.810132 6.62274 210 183 178 
-1.90976 1.17698 6.56029 212 131 126 
-1.52366 -0.276965 6.37261 189 124 102 
-0.680314 1.26455 5.58524 211 132 114 
1.05472 0.487573 7.22761 219 192 179 
1.0862 0.540174 6.56588 200 119 106 
-0.0655105 2.16558 7.90665 209 90 68 
1.10318 0.289704 6.15657 179 132 112 
-2.00566 0.491161 5.54535 195 119 104 
0.5525 -0.399119 6.32984 194 126 112 
0.844742 0.969265 5.81941 220 171 173 
0.258719 -0.672769 6.51251 184 135 117 
0.925074 0.16838 6.67696 188 127 107 
0.636265 -0.0381745 6.53026 206 114 101 
-1.28773 0.106905 6.44339 200 177 175 
-1.77544 0.911024 6.60337 204 158 153 
-1.40011 0.375245 6.44004 210 174 173 
0.930646 0.559783 6.2367 180 122 99 
0.360776 -0.653321 6.49763 201 143 137 
0.35148 -0.103904 7.26142 180 137 111 
0.934666 0.857402 6.42061 205 143 123 
0.796109 0.91333 5.554 202 179 182 
-0.4756 0.379062 5.91889 191 102 71 
-0.12778 0.286029 5.66025 203 113 102 
0.752895 0.17361 6.76344 184 121 101 
-0.684687 0.796563 6.72078 195 114 99 
-0.0899601 -0.668994 6.68138 209 135 127 
-1.54533 0.275566 6.43447 191 154 155 
-1.49033 0.957148 5.36258 211 114 102 
-0.00659504 -0.495943 6.50584 187 127 107 
-1.41053 1.56061 6.03089 212 124 101 
0.847697 0.19285 5.76994 202 136 125 
-1.18642 1.2144 6.04953 223 108 92 
-0.856059 1.53639 5.36873 192 164 144 
0.834073 0.486435 5.59968 210 151 141 
0.16781 -0.461854 7.09262 212 131 120 
0.180296 2.07084 6.13043 195 149 125 
-2.05898 0.792476 5.47237 222 104 87 
-1.44989 1.3898 6.31506 201 101 70 
1.00069 0.848776 5.94964 188 135 123 
0.767928 -0.0988124 6.14425 184 122 100 
-1.22552 1.50359 6.48576 204 100 72 
-0.975094 0.644909 7.44725 200 134 127 
-1.16205 1.07278 5.44152 203 119 108 
-0.480558 -0.572787 5.65034 178 144 123 
-0.0490695 -0.513038 7.66063 220 157 147 
1.38548 0.6058 6.33055 194 123 101 
-1.53343 0.291729 4.2194 193 174 178 
-1.2674 1.74029 6.11431 186 144 138 
-0.607442 -0.736934 6.59685 182 157 134 
-2.30032 0.199997 4.09314 190 119 99 
-1.70842 0.738999 6.55892 210 133 130 
0.288641 0.484574 5.58612 191 122 99 
0.571947 1.43061 5.9329 211 155 143 
0.082183 1.47194 5.26337 208 176 175 
-1.62929 0.498235 7.00148 223 120 105 
-1.28915 0.574563 6.29933 207 107 103 
-1.11238 -0.0179373 6.65128 210 123 111 
-1.28069 0.0477226 6.7064 213 112 101 
0.652737 1.47009 6.20903 220 112 100 
0.00283776 1.48014 5.17492 218 196 190 
-1.67071 0.564021 6.26847 201 110 104 
-1.78043 0.452438 6.14259 189 124 121 
0.023332 -0.513998 5.37839 196 136 125 
-1.43879 0.0799846 6.19394 205 123 116 
-0.658208 1.71651 5.43985 176 148 175 
-0.23552 -0.41157 7.4989 216 130 110 
0.524131 0.937006 5.09251 188 144 132 
-0.768335 1.80226 5.13062 212 164 168 
0.36865 -0.287459 6.40162 188 118 117 
-0.635512 1.58115 5.80542 210 165 171 
-1.41251 0.476738 5.57024 221 100 80 
-0.517465 -1.21846 6.62812 199 150 139 
0.481852 0.417558 7.23583 214 131 119 
-0.564672 1.21444 5.16398 219 159 160 
0.0637081 -0.26311 7.38999 208 147 153 
0.831022 0.057323 7.14651 217 148 133 
1.07044 -0.105997 6.83434 208 132 111 
0.229683 1.29314 5.50045 203 125 113 
0.757605 -0.772743 6.48082 223 110 88 
-1.16986 1.1805 5.9366 200 141 122 
0.99305 1.14874 6.44947 206 122 89 
0.785342 1.63482 6.24716 178 96 88 
0.017896 -0.8071 6.59928 200 92 83 
0.888148 1.57504 6.26789 211 168 152 
-1.45646 -0.078657 6.93915 207 147 143 
0.258215 1.61007 5.76888 207 145 143 
0.699061 1.27942 5.57042 203 132 128 
0.81109 1.60583 6.15201 185 123 110 
0.761068 1.44327 6.0031 220 111 102 
0.443515 1.48811 5.79275 204 133 124 
0.97164 0.397764 5.90346 210 106 101 
0.505202 1.50246 5.57051 214 163 157 
-1.67917 -0.165126 6.53315 193 113 103 
-1.58603 0.0671516 6.79924 202 113 104 
0.763552 -0.339365 6.28465 190 136 145 
-1.71993 0.595739 5.71331 206 131 124 
-0.3664 -0.572307 6.33575 211 131 127 
-0.119156 -0.816255 6.59437 200 174 170 
0.272896 1.48586 5.44218 224 171 165 
-0.426878 1.56314 5.43854 221 193 191 
-0.76375 -0.551118 7.01978 202 153 150 
-0.0670064 -0.526404 6.09903 213 134 129 
0.383222 1.63183 5.83416 215 130 121 
-1.74645 -0.24129 6.755 206 122 115 
-0.665644 -0.686017 5.99335 224 121 106 
-2.25518 0.748155 7.05777 219 113 105 
0.368819 1.63585 5.87146 218 130 120 
-1.79146 0.529773 6.03062 204 136 131 
0.470124 -0.250954 7.043 220 187 175 
-0.830443 1.66149 5.089 223 191 175 
-0.531261 1.61972 6.0882 221 186 169 
-1.48466 1.62052 6.33299 193 141 114 
0.863535 1.57341 6.29503 169 100 73 
1.07795 0.686099 6.85042 169 89 67 
-1.20216 1.1013 5.19632 218 110 87 
0.237605 -0.186014 3.86266 204 109 78 
0.543962 -0.479282 6.31194 193 115 86 
1.03551 0.724617 6.93393 165 111 85 
0.438068 1.10291 4.97811 184 170 144 
1.10379 0.613116 6.61176 172 122 92 
-1.51481 1.12925 5.63712 199 174 157 
1.64748 -0.585303 2.98993 179 133 120 
-1.32035 1.36931 5.8181 185 146 132 
-1.63986 1.38955 5.8902 195 165 149 
-2.12056 1.80001 6.79929 201 153 128 
-1.28641 1.11813 5.82756 191 116 91 
1.07247 0.853767 6.8288 182 107 97 
-0.13934 0.483862 4.53413 196 185 182 
-1.52858 1.56067 6.32567 193 135 108 
0.105323 -0.791183 5.10307 196 142 123 
0.235779 0.153395 4.1711 194 177 171 
0.738125 1.1091 5.44912 177 133 113 
0.961523 -1.19096 4.74253 193 178 162 
2.23201 -1.0475 2.82577 183 122 92 
1.05216 -0.15489 5.81461 176 148 126 
1.10251 0.117512 3.78578 200 188 176 
0.641916 0.0874969 7.306 185 161 145 
1.06081 0.674828 6.76576 171 133 112 
-0.378263 0.296506 4.63609 189 153 136 
1.03959 0.464395 4.3427 178 158 136 
0.73186 0.116854 7.08275 181 154 138 
-0.123101 -0.887667 6.04325 190 161 149 
1.18046 0.349975 6.44596 175 143 119 
0.0687281 -0.808918 6.42081 195 191 177 
-0.935823 -0.558945 6.27481 187 152 138 
-1.51603 2.26403 6.2053 196 198 205 
1.56268 -0.627086 4.58322 180 140 119 
0.162722 -0.322412 6.96187 199 199 205 
-1.74792 1.52453 6.53479 184 140 114 
-1.25339 1.25119 6.17142 194 140 116 
0.994578 0.414095 6.28266 171 104 80 
-1.44899 1.38639 6.38725 168 108 79 
0.481533 -0.053148 7.35961 171 139 130 
-1.50955 1.2575 6.15581 180 113 91 
0.909429 0.371933 6.83259 172 112 94 
-0.446785 -0.606948 6.59678 182 136 119 
0.382635 -0.0596753 7.43777 184 154 140 
0.204934 -0.606075 6.50814 179 142 128 
0.933442 0.284196 6.39368 171 117 98 
0.637996 -0.714267 6.14563 187 132 108 
1.04813 0.869736 6.47709 176 90 57 
1.78195 -0.7956 4.95052 195 85 54 
0.21687 -0.343388 7.1875 182 147 139 
0.884103 0.325783 6.90999 178 135 120 
0.998129 0.277728 6.58194 181 108 88 
1.02713 0.427354 6.35177 176 100 76 
-0.774543 1.51665 8.31818 178 123 99 
0.492002 0.368674 6.62361 178 117 100 
-1.21608 -0.584423 6.36046 184 117 91 
0.292315 1.42219 7.13297 174 103 78 
2.42304 -1.08398 4.61683 173 95 69 
0.771702 0.202043 6.36955 179 128 109 
0.0491606 -0.746854 6.74453 202 133 136 
0.288304 -0.403321 7.38354 200 122 119 
-0.110807 1.63876 5.48955 209 155 152 
-1.29925 0.964465 5.83607 203 112 92 
-0.11174 0.312607 6.84324 202 110 103 
0.724038 -0.177108 6.48665 184 147 135 
0.888418 0.486983 6.95295 209 173 158 
-0.616098 -0.137037 7.76654 168 80 54 
-0.444227 -0.364004 7.45411 208 189 188 
0.54232 -0.557461 6.64583 189 176 170 
-0.510134 0.917557 4.96813 206 166 152 
-0.826486 0.109475 7.07602 214 166 144 
-0.768857 -0.5817 7.53193 201 192 183 
-1.19626 -0.410892 6.66199 195 163 159 
0.642604 1.73446 6.10442 193 151 131 
-0.276495 1.9533 7.06712 210 98 74 
0.855313 0.143091 7.06772 196 154 143 
-1.68246 -0.339467 6.35477 220 104 77 
1.02814 0.346296 5.63727 211 162 141 
-0.481968 -1.02891 8.25832 180 137 133 
-1.2972 -0.261694 6.72817 192 155 154 
-0.722909 1.14413 3.01931 192 149 138 
0.724171 -0.279279 6.57154 182 147 136 
-1.13763 1.22088 5.33671 184 134 129 
-0.757465 2.26312 4.67166 176 141 120 
-0.34606 1.46327 5.25752 184 131 125 
0.674812 -0.00063531 7.26118 186 161 150 
0.191913 -0.294353 7.24465 181 156 150 
-0.878385 1.80556 6.54877 209 164 146 
1.00854 0.342802 5.61941 210 165 150 
-1.65606 0.53693 5.46781 203 184 177 
-0.652485 2.01813 5.94292 210 181 166 
-0.360245 0.836119 3.83876 190 153 147 
-0.113728 1.57296 5.62474 193 135 127 
-0.255692 0.272051 5.38698 185 157 154 
-0.266639 0.196782 6.40289 186 161 160 
-0.184591 1.22256 5.40098 197 81 54 
0.595344 -0.434567 6.58192 182 140 127 
-1.00921 1.27279 5.34655 186 124 120 
-1.39158 1.55569 5.87954 192 114 93 
-1.19569 -0.215443 7.01031 195 166 166 
-1.34116 1.2469 4.85043 185 122 118 
0.633675 1.00236 5.29071 210 190 177 
0.962723 1.50659 6.23299 178 74 53 
0.897623 0.982334 5.48401 140 138 139 
0.236545 1.34889 5.11955 163 108 109 
-0.0908655 1.51027 5.11399 173 127 135 
0.606794 1.81071 6.0204 171 116 99 
0.48995 1.66621 5.75913 214 145 126 
-0.484 -0.229325 7.548 207 123 119 
0.893434 1.52581 6.29639 211 156 139 
-0.567617 -0.345751 5.77794 164 114 112 
-1.20524 -0.40905 6.4579 174 132 130 
1.02881 0.919992 6.02016 180 125 112 
1.01337 0.90987 5.91759 217 170 158 
-0.932416 1.44314 5.28663 191 150 144 
0.905549 1.21225 5.82123 171 98 85 
-0.458307 -0.385408 7.06981 188 133 130 
-0.409434 -0.89842 6.69065 213 112 101 
0.96512 1.26143 6.12542 204 136 117 
-0.69322 -0.465842 6.67939 216 158 158 
0.0878162 0.265336 3.84205 186 114 115 
-0.356417 -0.731999 6.5802 223 154 154 
-0.987654 -0.573578 6.46047 222 151 149 
0.600259 -0.377083 6.76361 200 154 144 
0.713882 0.12416 6.91852 194 136 129 
-0.335212 1.64291 3.41867 200 161 154 
0.732723 -0.422432 6.48826 219 190 181 
0.661203 1.64171 5.94691 197 111 94 
1.02295 1.25451 6.23947 213 145 126 
0.430581 1.69575 5.72552 212 156 140 
0.224309 1.36336 5.00816 203 127 128 
0.672924 1.29017 4.20746 203 165 165 
1.02992 1.23788 6.36398 185 114 98 
-0.997938 1.53746 5.51185 215 150 140 
-0.576997 -0.417642 7.60002 202 130 127 
-0.998364 -0.188717 7.4362 220 134 130 
-0.794845 1.70531 5.50135 198 117 106 
-0.499508 -0.340763 7.0256 197 126 124 
-0.426288 -0.317102 7.37673 203 145 144 
-1.24328 -0.0838181 6.51918 206 128 123 
-0.727205 -0.399336 7.16922 213 138 135 
0.805738 1.56495 6.05686 204 108 90 
0.290936 -0.528895 6.75133 223 153 147 
-0.128218 -0.156394 6.84304 212 141 140 
0.784297 1.05918 5.18698 195 133 138 
0.479153 1.84807 5.92297 190 128 111 
-0.34893 -0.502829 7.17847 177 128 124 
-0.255169 -0.638479 6.89657 219 142 139 
-0.831589 1.83786 5.82467 207 132 111 
-0.165907 1.84326 5.55449 215 98 85 
0.697437 1.57262 5.89642 207 129 112 
-1.03847 -0.543541 6.73918 214 139 138 
0.616191 0.0471226 7.12084 207 150 143 
-0.887911 -0.342138 7.48785 204 111 105 
0.157263 -0.196408 7.43563 203 126 121 
-0.696183 -0.42119 7.31117 209 130 128 
-0.264599 2.05294 5.80752 204 138 123 
-0.382178 1.95962 5.84033 217 101 81 
-0.846764 1.87651 5.9288 203 138 118 
0.477478 -0.0881226 7.16511 209 130 126 
-0.133921 0.0957857 6.39969 224 137 129 
0.69963 -0.130627 6.75572 218 156 148 
0.392726 -0.338416 7.10616 210 131 127 
0.760843 1.55853 5.99348 197 113 92 
-0.776165 -0.741328 6.61713 201 128 128 
0.536581 1.67575 5.90203 204 146 127 
0.671072 -0.180795 6.75549 204 138 130 
-0.158227 1.47971 5.1065 205 128 132 
0.701453 1.62125 5.96948 202 112 99 
-0.955112 -0.387832 6.9293 204 125 122 
-0.757343 1.96506 5.86525 209 135 114 
0.222375 0.0764884 4.63444 207 130 130 
0.510532 -0.432998 6.7378 212 149 143 
0.581955 1.59464 5.7323 207 104 88 
-1.37962 0.461319 6.42062 218 132 125 
0.315919 -0.656015 6.71718 202 131 124 
-1.14519 -0.360422 7.0088 211 134 128 
-0.104397 1.4587 4.99479 198 119 120 
-0.414213 -0.310614 7.38763 206 137 134 
-1.44508 -0.214034 6.42779 207 145 142 
0.92039 0.834032 7.13116 218 112 84 
-0.166837 1.23644 5.23169 217 160 164 
-0.586868 1.28627 5.5793 215 154 159 
0.378396 2.37197 6.42027 205 129 113 
-0.641662 0.706643 5.67883 191 123 122 
-1.74686 0.48672 6.29387 210 135 136 
-1.32385 1.58539 6.87309 196 76 58 
-1.42066 1.26201 5.9808 218 140 131 
-1.66969 0.477924 6.9971 214 174 178 
-1.37102 1.34877 5.65188 213 141 132 
-1.79068 0.573502 5.79022 214 100 86 
-0.355139 1.02676 5.19718 210 134 129 
0.0267309 2.24174 6.80271 204 141 134 
-0.124766 1.38971 5.02364 223 122 116 
-1.88022 0.589407 5.92704 214 110 102 
0.711535 1.01728 5.6145 179 156 168 
0.428495 0.758594 5.13803 210 168 182 
-1.3203 0.284773 7.10072 218 182 197 
-1.66579 0.681078 6.37842 201 146 150 
-1.62086 0.760865 5.72261 206 130 122 
1.12014 0.83942 6.76016 215 122 112 
-1.63748 0.607155 5.65843 213 146 147 
-1.54336 1.1891 6.55403 215 122 110 
-1.23927 0.770499 6.32894 216 114 106 
-1.84566 0.357745 5.51896 201 169 170 
-1.01765 1.302 5.18561 217 119 113 
0.946034 0.329732 6.64595 224 87 59 
-0.22861 1.26054 5.16373 219 177 181 
-1.23809 0.916515 5.76622 206 108 90 
-1.1015 1.08978 6.0192 200 113 95 
-1.12955 0.181169 5.77375 216 99 71 
0.0607301 1.77185 5.74038 209 147 133 
-1.35624 -0.429653 6.20145 201 137 111 
-1.46887 0.205719 6.3282 210 123 97 
0.236588 1.67601 5.78739 206 133 120 
-0.610407 -0.364009 7.25764 206 128 121 
-1.04209 0.7049 6.35691 197 103 75 
-0.00964755 1.63394 5.97005 209 158 140 
-1.56743 1.25155 6.62937 199 130 109 
0.768035 0.576409 7.2865 198 155 151 
-0.647327 1.78938 6.03121 207 166 149 
-0.498584 1.07427 4.94458 200 95 69 
-0.623598 1.11592 4.99586 198 101 79 
-0.165275 -0.348829 7.36675 193 157 147 
0.488926 -0.0426231 7.34104 190 150 148 
0.373087 -0.155735 7.42547 211 160 157 
0.89469 1.42307 6.17561 188 117 96 
-1.68992 1.37286 6.4904 184 102 79 
-1.64093 0.663427 5.77196 181 114 97 
-0.211354 -0.609681 6.92697 155 152 151 
-0.292596 -0.68603 6.73088 158 125 131 
-1.32441 0.178424 6.64781 204 189 183 
-0.913917 -0.160953 7.6975 191 128 122 
-0.961134 -0.646101 6.74876 153 115 116 
0.346051 1.83588 5.88878 198 150 141 
-1.11695 -0.284563 6.76629 157 146 137 
-1.16612 0.102311 7.45887 170 81 70 
-0.501856 -0.468322 7.21417 159 156 150 
-0.352677 -0.339992 7.41988 144 126 129 
-0.856778 -0.596432 6.60371 157 120 127 
-1.1261 -0.00626388 7.4505 164 104 98 
-0.917509 -0.364638 6.82353 199 160 160 
-1.01083 -0.574394 6.51754 153 147 144 
-0.793091 -0.278441 6.80994 203 201 195 
-0.782562 -0.592813 6.87754 214 208 207 
0.0903409 -0.235281 6.93172 150 108 100 
-1.00579 0.0715416 7.17589 169 100 89 
-0.931231 -0.619882 6.76244 140 116 117 
0.406036 -0.456344 6.14481 190 158 151 
-1.49875 -0.130468 6.58146 207 176 178 
-0.845884 -0.599918 6.71025 209 209 215 
-1.16006 -0.3692 6.79883 195 162 159 
-0.349671 -0.332244 7.44788 200 180 178 
0.389444 -0.341519 7.0383 190 137 131 
-0.74123 -0.420277 6.36128 206 202 203 
0.655826 1.55071 5.91415 184 147 128 
-1.14995 -0.058077 7.49269 162 119 114 
-0.764775 -0.708177 6.75305 216 205 205 
-0.0887923 -0.0837363 7.23974 183 136 132 
0.0144174 -0.814033 6.66784 202 194 195 
-1.0834 -0.61862 6.64268 171 162 164 
-1.5732 -0.207331 8.1794 160 108 102 
-1.10929 -0.160915 7.59119 219 190 183 
1.08181 0.868781 6.55686 182 145 122 
-0.265479 -0.398824 7.22293 215 212 212 
-0.268693 -0.918244 9.19023 173 145 145 
-1.02639 -0.535109 6.74341 203 203 194 
-1.58569 -0.106776 5.99773 184 110 105 
-0.933922 -0.394625 8.34534 195 141 138 
0.0790375 -0.38217 6.74853 180 135 132 
0.404953 1.75548 5.90126 197 146 129 
-0.493572 -0.382327 7.12341 190 186 178 
-1.44587 0.387764 7.13641 195 159 153 
0.239454 1.2359 4.97245 182 119 119 
-0.286472 0.622202 5.05529 204 191 189 
0.787395 1.69337 6.1628 189 174 158 
0.341148 1.86979 3.20221 191 162 156 
1.08742 1.05838 6.55397 177 138 115 
-0.362651 1.64572 7.27277 184 127 113 
-1.50068 -0.0576755 6.63019 183 140 135 
-0.537489 0.557856 5.4006 202 180 170 
-1.2785 0.0485286 7.00701 177 147 137 
-1.26116 -0.00504816 7.1803 198 175 166 
0.603615 0.521589 6.66113 212 174 173 
-0.787156 -0.247767 7.1223 185 164 154 
0.129237 1.88895 5.70039 193 141 128 
0.096267 1.85813 5.70625 186 135 117 
-0.0517551 1.92724 5.84608 184 129 115 
-0.272995 1.96559 6.54453 198 169 158 
0.294393 1.83567 3.54641 173 123 123 
-0.271895 1.48627 5.04608 190 144 143 
0.108158 -0.578085 7.34646 201 155 144 
-0.79839 1.99667 6.10946 195 131 98 
-1.79139 -0.0548218 6.83499 186 136 131 
0.838442 1.06301 5.57678 182 132 128 
-1.6178 0.63721 6.10557 201 168 156 
0.286351 -0.122438 7.1365 187 133 127 
-1.7106 0.0715998 7.47485 181 130 128 
-1.71953 -0.0547983 6.52769 182 134 129 
-1.50828 -0.100049 6.37266 188 157 150 
-1.16885 0.176919 7.06455 214 157 150 
0.23231 1.55415 5.35333 188 136 134 
-1.17087 0.892568 6.00651 203 197 186 
-0.078204 0.00999632 7.06787 191 141 136 
-0.32716 1.99158 5.78342 195 127 105 
0.0734151 1.18661 6.84824 193 144 146 
-1.57171 0.482426 7.13204 197 163 155 
-0.351465 2.03822 5.83439 191 135 109 
-1.46882 -0.368745 6.39852 176 142 143 
0.680051 1.41324 5.75299 179 115 105 
0.221056 -0.495852 6.80362 179 134 128 
1.1675 0.432481 6.91042 224 97 71 
0.558788 1.1993 5.63599 181 128 129 
0.504087 -0.146444 7.10409 186 155 142 
-0.31665 1.56979 5.40483 192 142 140 
-1.66199 -0.356961 6.29122 197 115 98 
-0.280072 1.42355 5.10533 186 148 149 
0.233666 1.44731 4.70533 179 133 137 
0.978974 1.19913 6.02478 180 114 99 
-1.12013 1.51646 5.3773 188 149 126 
-0.598707 1.97251 5.91918 196 121 97 
0.928735 1.23088 5.95998 179 108 95 
-0.318483 1.67934 5.51218 195 136 127 
-1.61513 0.451041 6.41261 195 146 137 
-0.387739 1.86265 5.70834 194 131 115 
-0.485143 1.51114 6.38677 192 126 118 
-0.247065 -0.747043 7.14306 177 160 164 
-0.429961 1.88874 6.16556 194 135 123 
0.818095 0.709557 5.20842 207 171 151 
-0.936402 0.0731361 7.27974 203 123 99 
-1.11127 0.0856101 4.84 185 154 152 
-0.11348 1.74206 5.23812 197 141 129 
-1.15978 1.68628 5.90541 206 122 100 
-0.9579 1.69537 5.33063 194 126 114 
0.378903 1.21035 4.93565 204 198 189 
0.299512 1.9211 6.05159 206 167 151 
-0.164938 1.72094 5.64111 193 128 115 
-0.59829 1.64215 5.36962 190 131 122 
-1.52022 1.11493 5.69562 185 120 107 
-0.756184 1.53656 5.19767 186 123 119 
-1.20116 0.961383 3.08592 188 160 149 
0.301494 1.93983 5.98756 192 160 138 
-0.791619 -0.773485 6.63535 184 160 160 
-1.70179 0.616641 5.89712 205 214 208 
-0.862361 1.9993 6.05335 218 95 73 
1.02568 1.40841 6.45654 215 186 169 
1.14898 0.545917 5.71897 175 134 128 
0.891358 1.05751 5.78797 188 161 160 
1.07808 1.17726 6.34941 209 180 164 
1.11323 0.630921 6.18411 193 120 98 
0.491476 -0.0879262 7.23317 204 142 134 
-2.2364 0.0298448 6.29606 221 227 228 
1.03328 0.331546 5.86518 183 109 87 
1.09994 0.563753 7.05569 202 145 124 
1.12622 0.664806 6.88963 187 112 84 
0.836965 -0.457215 6.76544 216 148 139 
0.985635 0.785556 5.87064 194 138 126 
-0.694694 1.87953 5.95217 196 139 113 
0.815769 0.207648 6.80595 188 123 101 
-1.84268 0.926595 6.42489 181 117 95 
-2.32778 0.413838 5.93975 192 114 98 
0.877837 -0.00898837 6.71778 222 187 191 
0.827993 0.151978 6.87082 215 154 161 
-1.19542 2.46063 6.69768 204 152 150 
-1.98556 0.820377 6.57662 204 145 142 
0.483394 -0.197042 7.05609 216 173 183 
-1.59259 0.99188 6.03019 193 130 113 
1.05362 0.388905 6.17954 208 118 109 
-1.84995 0.732509 6.51641 195 118 113 
1.02424 0.890163 6.48677 220 94 79 
0.861994 0.861893 6.08393 221 95 81 
0.77183 1.10097 5.5533 203 132 124 
-1.62502 0.792683 6.01888 212 128 122 
-1.31474 0.945463 5.34895 212 147 148 
-0.72007 -0.621342 6.89183 204 146 144 
4.53743 -1.36605 2.1446 212 130 131 
1.04179 1.38051 6.62541 193 71 53 
-1.67739 -1.23814 6.61724 208 173 191 
0.250149 1.54437 5.37115 165 178 198 
0.104283 2.11367 5.90458 222 197 183 
-0.736325 -0.643401 6.98393 207 140 137 
-1.28374 -0.879656 6.7394 190 156 151 
0.779801 0.328559 5.56855 219 137 115 
0.723001 0.69406 5.3952 214 157 139 
-0.0430609 1.0263 6.15572 214 85 57 
-1.10648 -0.530935 6.92107 192 176 177 
0.72562 1.82636 6.27048 213 176 164 
-1.07214 -0.576096 7.08157 191 136 134 
-0.114336 1.82994 5.60369 172 126 132 
0.0227465 1.73541 5.81222 198 153 156 
-0.907205 -0.551951 6.97835 194 134 134 
-1.29589 -0.929575 6.1913 205 113 112 
0.710499 1.53344 6.17541 196 117 103 
-0.258638 2.07614 5.78402 188 156 145 
-0.159362 1.54936 5.38494 217 190 198 
0.893521 1.26667 6.05266 181 115 99 
0.747819 1.18733 5.99331 201 166 154 
0.22512 1.98564 5.78968 220 221 229 
-1.01001 -0.464631 7.1115 187 141 146 
1.03626 1.15571 6.47503 195 140 123 
-0.780807 1.7129 5.76218 199 129 119 
0.446856 2.05868 6.05565 179 114 102 
-1.37484 -0.979294 6.43825 208 163 175 
-0.979685 -1.22216 6.3632 197 139 134 
-1.79593 -0.863061 6.91264 211 127 131 
0.528853 0.590343 5.56197 203 164 147 
-0.959362 -0.672055 6.48471 209 151 156 
-0.686199 -0.444541 7.27131 198 140 128 
-0.162146 1.20747 5.94051 198 135 114 
-0.904822 1.19969 5.08044 198 155 152 
-2.01454 -0.432042 6.12793 213 130 115 
-2.00474 -0.438402 6.35789 187 114 108 
-0.329188 -0.563492 7.05075 209 159 148 
1.03038 1.63183 6.47477 178 141 127 
-1.28089 -0.705026 6.31926 214 160 171 
-1.20433 0.0566025 7.08913 204 138 144 
-0.62709 1.28435 5.25164 200 162 157 
0.962945 0.803648 6.0107 194 161 138 
-0.660142 1.9006 5.95628 210 147 134 
-2.55237 -1.65445 6.13389 176 98 106 
-1.39975 -1.2367 6.22541 212 187 197 
-1.82191 -0.879644 6.27655 211 147 147 
-0.547053 -0.386369 6.78361 221 175 167 
-0.982177 1.40592 5.51331 202 138 121 
-0.750711 -0.48542 6.74531 220 161 157 
-0.595544 1.74595 5.49977 211 172 170 
-1.71305 0.0628491 6.97208 222 129 118 
-2.09216 -0.276815 6.2511 179 99 83 
-1.26259 1.21419 5.2247 182 154 132 
0.699696 0.938939 5.97212 196 125 106 
-0.96913 0.0205198 6.69745 159 103 88 
-0.527811 1.49932 5.26917 213 194 192 
-1.17792 1.57091 5.20698 187 151 130 
1.05738 0.73192 6.64974 210 145 114 
0.398619 0.458507 7.32375 221 169 160 
0.730301 0.151257 7.03165 197 151 130 
-0.429105 1.43703 5.0649 190 141 136 
